0.000000,0.000000,0.000000,0.000000,0.000000,0.000000,0.000000,0.000000,0.000000,0.000000,0.000000,0.000001,0.000001,0.000001,0.000001,0.000001,0.000002,0.000002,0.000003,0.000005,0.000005,0.000006,0.000008,0.000008,0.000012,0.000012,0.000018,0.000020,0.000022,0.000024,0.000033,0.000033,0.000043,0.000043,0.000047,0.000053,0.000065,0.000058,0.000069,0.000078,0.000100,0.000080,0.000098,0.000108,0.000106,0.000117,0.000099,0.000134,0.000122,0.000132,0.000118,0.000116,0.000114,0.000132,0.000091,0.000085,0.000112,0.000104,0.000096,0.000094,0.000078,0.000063,0.000072,0.000069,0.000057,0.000049,0.000042,0.000039,0.000031,0.000033,0.000023,0.000022,0.000020,0.000017,0.000014,0.000011,0.000008,0.000008,0.000007,0.000005,0.000004,0.000004,0.000003,0.000002,0.000001,0.000001,0.000001,0.000001,0.000001,0.000000,0.000000,0.000000,0.000000,0.000000,0.000000,0.000000,0.000000,0.000000,0.000000,0.000000
0.000000,0.000000,0.000000,0.000000,0.000000,0.000000,0.000000,0.000000,0.000000,0.000000,0.000001,0.000001,0.000001,0.000001,0.000002,0.000002,0.000003,0.000004,0.000005,0.000007,0.000008,0.000008,0.000011,0.000013,0.000016,0.000020,0.000024,0.000027,0.000033,0.000041,0.000045,0.000046,0.000063,0.000067,0.000077,0.000083,0.000088,0.000093,0.000132,0.000141,0.000139,0.000131,0.000130,0.000147,0.000148,0.000133,0.000174,0.000177,0.000168,0.000185,0.000166,0.000149,0.000150,0.000182,0.000143,0.000156,0.000182,0.000151,0.000138,0.000131,0.000126,0.000089,0.000111,0.000087,0.000072,0.000069,0.000068,0.000058,0.000054,0.000042,0.000034,0.000038,0.000026,0.000020,0.000024,0.000015,0.000014,0.000012,0.000009,0.000007,0.000006,0.000005,0.000004,0.000003,0.000002,0.000002,0.000001,0.000001,0.000001,0.000001,0.000000,0.000000,0.000000,0.000000,0.000000,0.000000,0.000000,0.000000,0.000000,0.000000
0.000000,0.000000,0.000000,0.000000,0.000000,0.000000,0.000000,0.000000,0.000000,0.000001,0.000001,0.000001,0.000002,0.000002,0.000002,0.000003,0.000004,0.000005,0.000007,0.000008,0.000011,0.000013,0.000018,0.000017,0.000022,0.000031,0.000040,0.000034,0.000047,0.000054,0.000054,0.000084,0.000079,0.000085,0.000100,0.000099,0.000131,0.000127,0.000144,0.000167,0.000158,0.000201,0.000189,0.000198,0.000245,0.000212,0.000217,0.000260,0.000262,0.000219,0.000275,0.000260,0.000264,0.000252,0.000240,0.000198,0.000207,0.000153,0.000180,0.000169,0.000192,0.000170,0.000130,0.000132,0.000130,0.000116,0.000082,0.000068,0.000068,0.000065,0.000056,0.000047,0.000035,0.000033,0.000027,0.000028,0.000018,0.000015,0.000009,0.000009,0.000009,0.000007,0.000005,0.000004,0.000003,0.000003,0.000002,0.000001,0.000001,0.000001,0.000001,0.000000,0.000000,0.000000,0.000000,0.000000,0.000000,0.000000,0.000000,0.000000
0.000000,0.000000,0.000000,0.000000,0.000000,0.000000,0.000000,0.000000,0.000001,0.000001,0.000001,0.000001,0.000002,0.000003,0.000004,0.000005,0.000005,0.000009,0.000010,0.000011,0.000014,0.000018,0.000017,0.000026,0.000030,0.000040,0.000043,0.000049,0.000054,0.000086,0.000102,0.000093,0.000109,0.000120,0.000123,0.000137,0.000192,0.000190,0.000221,0.000250,0.000251,0.000270,0.000253,0.000308,0.000312,0.000361,0.000320,0.000370,0.000370,0.000374,0.000355,0.000328,0.000315,0.000366,0.000323,0.000311,0.000324,0.000290,0.000304,0.000220,0.000201,0.000232,0.000199,0.000191,0.000177,0.000137,0.000142,0.000103,0.000099,0.000086,0.000075,0.000069,0.000042,0.000050,0.000040,0.000034,0.000027,0.000021,0.000016,0.000016,0.000011,0.000009,0.000008,0.000006,0.000004,0.000003,0.000002,0.000002,0.000001,0.000001,0.000001,0.000001,0.000000,0.000000,0.000000,0.000000,0.000000,0.000000,0.000000,0.000000
0.000000,0.000000,0.000000,0.000000,0.000000,0.000000,0.000001,0.000001,0.000001,0.000001,0.000002,0.000002,0.000002,0.000004,0.000004,0.000006,0.000008,0.000011,0.000013,0.000017,0.000020,0.000026,0.000030,0.000035,0.000039,0.000057,0.000061,0.000072,0.000080,0.000095,0.000116,0.000139,0.000163,0.000177,0.000200,0.000235,0.000264,0.000290,0.000351,0.000351,0.000331,0.000460,0.000403,0.000376,0.000529,0.000382,0.000492,0.000523,0.000594,0.000521,0.000466,0.000514,0.000537,0.000474,0.000590,0.000556,0.000440,0.000490,0.000352,0.000348,0.000391,0.000315,0.000247,0.000192,0.000234,0.000252,0.000179,0.000156,0.000134,0.000118,0.000113,0.000103,0.000074,0.000061,0.000061,0.000052,0.000040,0.000023,0.000027,0.000021,0.000019,0.000012,0.000011,0.000008,0.000005,0.000004,0.000005,0.000003,0.000002,0.000002,0.000001,0.000001,0.000001,0.000001,0.000000,0.000000,0.000000,0.000000,0.000000,0.000000
0.000000,0.000000,0.000000,0.000000,0.000000,0.000001,0.000001,0.000001,0.000001,0.000002,0.000002,0.000003,0.000004,0.000005,0.000007,0.000008,0.000012,0.000014,0.000017,0.000021,0.000030,0.000039,0.000054,0.000055,0.000065,0.000075,0.000110,0.000105,0.000104,0.000152,0.000160,0.000180,0.000205,0.000272,0.000269,0.000279,0.000331,0.000423,0.000479,0.000480,0.000509,0.000512,0.000542,0.000614,0.000620,0.000735,0.000577,0.000588,0.000598,0.000611,0.000752,0.000631,0.000655,0.000661,0.000553,0.000623,0.000573,0.000553,0.000514,0.000490,0.000522,0.000468,0.000354,0.000333,0.000319,0.000313,0.000274,0.000221,0.000196,0.000179,0.000165,0.000119,0.000113,0.000085,0.000069,0.000070,0.000053,0.000039,0.000036,0.000030,0.000020,0.000020,0.000013,0.000012,0.000009,0.000007,0.000006,0.000004,0.000003,0.000002,0.000002,0.000001,0.000001,0.000001,0.000000,0.000000,0.000000,0.000000,0.000000,0.000000
0.000000,0.000000,0.000000,0.000000,0.000001,0.000001,0.000001,0.000001,0.000002,0.000002,0.000003,0.000005,0.000006,0.000007,0.000009,0.000013,0.000015,0.000021,0.000022,0.000031,0.000040,0.000051,0.000057,0.000065,0.000085,0.000104,0.000132,0.000125,0.000174,0.000183,0.000203,0.000297,0.000346,0.000425,0.000356,0.000425,0.000464,0.000548,0.000545,0.000651,0.000832,0.000561,0.000755,0.000690,0.001017,0.000846,0.001014,0.000873,0.000884,0.000950,0.000911,0.000831,0.000908,0.001010,0.000868,0.000987,0.000820,0.000729,0.000686,0.000538,0.000645,0.000594,0.000462,0.000471,0.000508,0.000371,0.000317,0.000278,0.000310,0.000244,0.000186,0.000172,0.000147,0.000130,0.000119,0.000090,0.000073,0.000057,0.000058,0.000043,0.000037,0.000028,0.000016,0.000015,0.000013,0.000009,0.000007,0.000006,0.000004,0.000003,0.000003,0.000002,0.000001,0.000001,0.000001,0.000001,0.000000,0.000000,0.000000,0.000000
0.000000,0.000000,0.000000,0.000000,0.000001,0.000001,0.000001,0.000002,0.000002,0.000003,0.000004,0.000005,0.000008,0.000010,0.000012,0.000015,0.000021,0.000027,0.000035,0.000041,0.000060,0.000075,0.000077,0.000091,0.000124,0.000143,0.000172,0.000201,0.000199,0.000298,0.000322,0.000373,0.000460,0.000522,0.000571,0.000654,0.000603,0.000747,0.000868,0.000986,0.000861,0.001081,0.001093,0.000849,0.000890,0.001284,0.001309,0.001239,0.001144,0.001523,0.001509,0.001120,0.001451,0.001393,0.001225,0.001045,0.001195,0.000961,0.000918,0.001067,0.001015,0.000820,0.000671,0.000596,0.000642,0.000523,0.000521,0.000376,0.000305,0.000261,0.000253,0.000262,0.000177,0.000155,0.000139,0.000137,0.000103,0.000076,0.000069,0.000048,0.000044,0.000028,0.000023,0.000021,0.000018,0.000013,0.000010,0.000007,0.000006,0.000004,0.000004,0.000003,0.000002,0.000001,0.000001,0.000001,0.000000,0.000000,0.000000,0.000000
0.000000,0.000000,0.000000,0.000001,0.000001,0.000001,0.000002,0.000002,0.000003,0.000004,0.000006,0.000007,0.000010,0.000015,0.000018,0.000021,0.000030,0.000041,0.000051,0.000059,0.000068,0.000084,0.000098,0.000137,0.000140,0.000142,0.000246,0.000296,0.000351,0.000432,0.000438,0.000513,0.000637,0.000588,0.000743,0.000903,0.001007,0.001046,0.000978,0.001054,0.001535,0.001180,0.001412,0.001500,0.001659,0.001466,0.001954,0.001469,0.001673,0.001699,0.001675,0.001824,0.001794,0.001630,0.001433,0.001805,0.001889,0.001192,0.001380,0.001340,0.001223,0.001004,0.001045,0.000712,0.000826,0.000779,0.000640,0.000617,0.000460,0.000428,0.000400,0.000301,0.000305,0.000219,0.000214,0.000162,0.000143,0.000119,0.000074,0.000065,0.000046,0.000041,0.000040,0.000030,0.000023,0.000017,0.000011,0.000010,0.000007,0.000005,0.000004,0.000004,0.000003,0.000002,0.000001,0.000001,0.000001,0.000000,0.000000,0.000000
0.000000,0.000000,0.000001,0.000001,0.000001,0.000001,0.000003,0.000003,0.000004,0.000005,0.000008,0.000010,0.000014,0.000019,0.000022,0.000033,0.000036,0.000049,0.000061,0.000088,0.000104,0.000112,0.000162,0.000203,0.000251,0.000277,0.000310,0.000362,0.000398,0.000569,0.000579,0.000752,0.000884,0.000871,0.000975,0.001290,0.001235,0.001724,0.001234,0.001877,0.001655,0.002098,0.001633,0.001867,0.002225,0.002414,0.002240,0.002032,0.002277,0.002090,0.002272,0.002867,0.002268,0.001896,0.002487,0.001802,0.002254,0.001870,0.001596,0.001431,0.001448,0.001489,0.001329,0.001342,0.001132,0.001072,0.000883,0.000796,0.000655,0.000534,0.000510,0.000453,0.000404,0.000360,0.000252,0.000234,0.000173,0.000157,0.000153,0.000097,0.000085,0.000061,0.000052,0.000039,0.000030,0.000024,0.000017,0.000013,0.000009,0.000007,0.000005,0.000004,0.000003,0.000002,0.000002,0.000001,0.000001,0.000001,0.000000,0.000000
0.000000,0.000000,0.000001,0.000001,0.000002,0.000002,0.000003,0.000004,0.000006,0.000008,0.000010,0.000012,0.000020,0.000025,0.000034,0.000048,0.000057,0.000059,0.000083,0.000114,0.000137,0.000163,0.000159,0.000200,0.000312,0.000393,0.000414,0.000470,0.000528,0.000546,0.000735,0.000985,0.001042,0.001127,0.001269,0.001347,0.001552,0.001888,0.002128,0.002312,0.002177,0.002588,0.002480,0.003203,0.003465,0.003011,0.003384,0.003284,0.003075,0.003292,0.003037,0.003282,0.002908,0.002389,0.003236,0.002822,0.002710,0.002718,0.002410,0.002789,0.002408,0.001776,0.001934,0.001559,0.001729,0.001499,0.001161,0.001198,0.000974,0.000812,0.000694,0.000525,0.000496,0.000412,0.000420,0.000251,0.000255,0.000191,0.000182,0.000142,0.000083,0.000097,0.000058,0.000050,0.000041,0.000028,0.000024,0.000018,0.000013,0.000010,0.000007,0.000007,0.000004,0.000003,0.000002,0.000002,0.000001,0.000001,0.000001,0.000000
0.000001,0.000001,0.000001,0.000002,0.000002,0.000003,0.000004,0.000006,0.000006,0.000012,0.000014,0.000019,0.000021,0.000031,0.000042,0.000052,0.000078,0.000091,0.000120,0.000158,0.000201,0.000249,0.000247,0.000386,0.000334,0.000415,0.000546,0.000693,0.000933,0.000986,0.000891,0.001326,0.001322,0.001543,0.002087,0.002167,0.002362,0.002468,0.002198,0.002550,0.003290,0.003199,0.003330,0.004207,0.003967,0.004514,0.003668,0.004374,0.004084,0.004074,0.004470,0.004495,0.004004,0.003460,0.004629,0.003978,0.002969,0.003168,0.003588,0.003054,0.003525,0.002421,0.002684,0.002471,0.002095,0.001848,0.001696,0.001479,0.001103,0.000992,0.000841,0.000831,0.000678,0.000594,0.000533,0.000348,0.000347,0.000237,0.000187,0.000161,0.000147,0.000117,0.000086,0.000082,0.000065,0.000043,0.000033,0.000024,0.000017,0.000013,0.000010,0.000008,0.000006,0.000004,0.000003,0.000002,0.000002,0.000001,0.000001,0.000001
0.000001,0.000001,0.000001,0.000002,0.000003,0.000004,0.000005,0.000007,0.000010,0.000013,0.000014,0.000027,0.000031,0.000042,0.000047,0.000068,0.000096,0.000136,0.000162,0.000170,0.000202,0.000327,0.000375,0.000395,0.000580,0.000534,0.000710,0.000987,0.001272,0.001221,0.001839,0.001278,0.001952,0.002349,0.002640,0.002724,0.002775,0.003725,0.002763,0.004232,0.004391,0.003951,0.003848,0.004591,0.006020,0.005012,0.005592,0.006098,0.005375,0.005501,0.006451,0.005746,0.005805,0.004914,0.005667,0.005428,0.005012,0.004763,0.004737,0.003496,0.003515,0.003346,0.003334,0.002644,0.002709,0.002123,0.002480,0.001638,0.001539,0.001411,0.001104,0.001279,0.000896,0.000715,0.000587,0.000564,0.000448,0.000383,0.000295,0.000216,0.000230,0.000169,0.000117,0.000093,0.000072,0.000053,0.000048,0.000035,0.000021,0.000022,0.000014,0.000010,0.000008,0.000006,0.000004,0.000002,0.000002,0.000001,0.000001,0.000001
0.000001,0.000001,0.000002,0.000003,0.000003,0.000005,0.000008,0.000009,0.000014,0.000018,0.000025,0.000033,0.000035,0.000060,0.000055,0.000099,0.000122,0.000136,0.000168,0.000250,0.000307,0.000375,0.000466,0.000605,0.000647,0.000878,0.000893,0.001115,0.001260,0.001655,0.002133,0.002179,0.002714,0.002861,0.003043,0.003896,0.004009,0.004260,0.004584,0.005591,0.005531,0.006816,0.006636,0.005797,0.007977,0.006446,0.007971,0.007593,0.007257,0.007796,0.007762,0.007605,0.007946,0.007486,0.004488,0.006624,0.006585,0.006577,0.004630,0.004882,0.004499,0.004675,0.004550,0.004203,0.003659,0.003130,0.003004,0.001894,0.002282,0.002087,0.001673,0.001350,0.001188,0.000834,0.000978,0.000664,0.000482,0.000462,0.000378,0.000323,0.000242,0.000185,0.000157,0.000122,0.000091,0.000062,0.000060,0.000047,0.000030,0.000026,0.000017,0.000013,0.000009,0.000007,0.000006,0.000004,0.000003,0.000002,0.000001,0.000001
0.000001,0.000002,0.000002,0.000003,0.000005,0.000007,0.000008,0.000011,0.000016,0.000018,0.000038,0.000034,0.000053,0.000086,0.000093,0.000137,0.000140,0.000197,0.000260,0.000289,0.000402,0.000465,0.000645,0.000818,0.000923,0.000914,0.001277,0.001450,0.001781,0.001972,0.002329,0.003046,0.003443,0.003948,0.004075,0.004610,0.005758,0.005130,0.006840,0.007625,0.005981,0.007720,0.006221,0.008180,0.008196,0.008379,0.008730,0.008811,0.010099,0.009702,0.010509,0.011975,0.009589,0.008611,0.008188,0.007792,0.007699,0.007471,0.007793,0.007193,0.007254,0.006970,0.005916,0.005351,0.004466,0.003419,0.003603,0.003215,0.002437,0.002827,0.002411,0.001716,0.001638,0.001223,0.001047,0.000859,0.000825,0.000627,0.000457,0.000412,0.000336,0.000267,0.000200,0.000152,0.000140,0.000094,0.000073,0.000053,0.000044,0.000036,0.000025,0.000018,0.000013,0.000009,0.000007,0.000004,0.000004,0.000002,0.000002,0.000001
0.000002,0.000002,0.000003,0.000004,0.000007,0.000009,0.000012,0.000018,0.000024,0.000028,0.000045,0.000052,0.000079,0.000100,0.000137,0.000175,0.000215,0.000287,0.000336,0.000430,0.000396,0.000542,0.000795,0.001084,0.001184,0.001159,0.001565,0.001684,0.002765,0.002252,0.003088,0.003718,0.004488,0.004926,0.006015,0.006309,0.007071,0.007776,0.008715,0.008068,0.008438,0.009210,0.010704,0.010470,0.009954,0.014037,0.012177,0.012321,0.013918,0.012134,0.014199,0.011545,0.011732,0.011969,0.012088,0.009923,0.011903,0.010776,0.009240,0.007759,0.008402,0.008062,0.008790,0.006827,0.005257,0.005526,0.004298,0.004007,0.003968,0.003374,0.002604,0.002696,0.001896,0.001568,0.001505,0.001203,0.000858,0.000812,0.000523,0.000545,0.000442,0.000309,0.000239,0.000175,0.000178,0.000110,0.000106,0.000058,0.000066,0.000030,0.000031,0.000022,0.000014,0.000013,0.000009,0.000006,0.000004,0.000003,0.000002,0.000002
0.000002,0.000003,0.000004,0.000005,0.000008,0.000012,0.000017,0.000022,0.000029,0.000034,0.000057,0.000068,0.000099,0.000107,0.000161,0.000210,0.000231,0.000271,0.000417,0.000549,0.000746,0.000876,0.001077,0.001165,0.001357,0.001929,0.002440,0.002278,0.002807,0.003772,0.004154,0.005027,0.006056,0.005490,0.007910,0.008342,0.008167,0.008804,0.008482,0.012585,0.010626,0.011568,0.012795,0.015803,0.015750,0.014552,0.018030,0.014707,0.015490,0.014524,0.015987,0.015821,0.016373,0.016069,0.013821,0.013458,0.014422,0.013930,0.012992,0.011085,0.009338,0.010378,0.009823,0.007438,0.007764,0.007091,0.006013,0.005555,0.004769,0.003370,0.003846,0.002689,0.002926,0.002175,0.001819,0.001097,0.001468,0.000996,0.000743,0.000709,0.000512,0.000344,0.000372,0.000296,0.000240,0.000204,0.000119,0.000093,0.000066,0.000051,0.000047,0.000029,0.000016,0.000015,0.000011,0.000007,0.000005,0.000004,0.000003,0.000002
0.000003,0.000003,0.000005,0.000007,0.000010,0.000015,0.000020,0.000027,0.000033,0.000048,0.000065,0.000105,0.000145,0.000162,0.000203,0.000244,0.000388,0.000453,0.000588,0.000766,0.001082,0.001048,0.001119,0.001570,0.001353,0.002129,0.002781,0.003412,0.004431,0.004189,0.005105,0.007123,0.006905,0.008307,0.009489,0.009150,0.010456,0.011871,0.012756,0.014141,0.014069,0.015556,0.016189,0.017071,0.016978,0.016091,0.018199,0.021939,0.024231,0.018945,0.022596,0.019107,0.021543,0.017011,0.019720,0.016601,0.018726,0.016729,0.016115,0.014678,0.015482,0.013399,0.009900,0.010388,0.007995,0.008672,0.006841,0.007320,0.006211,0.005861,0.005017,0.003639,0.002849,0.002580,0.002277,0.001827,0.001463,0.001376,0.001074,0.000933,0.000733,0.000556,0.000405,0.000303,0.000286,0.000203,0.000165,0.000132,0.000095,0.000066,0.000044,0.000036,0.000028,0.000020,0.000012,0.000011,0.000008,0.000004,0.000004,0.000002
0.000004,0.000005,0.000008,0.000010,0.000013,0.000021,0.000027,0.000038,0.000048,0.000067,0.000086,0.000123,0.000152,0.000194,0.000273,0.000351,0.000446,0.000580,0.000658,0.000952,0.001044,0.001167,0.001660,0.001949,0.002527,0.003240,0.003788,0.004024,0.005176,0.005398,0.006096,0.008362,0.009506,0.008315,0.010460,0.011515,0.015971,0.016010,0.017367,0.014879,0.017291,0.022558,0.022630,0.025072,0.023016,0.026559,0.022207,0.021679,0.028178,0.023435,0.025782,0.027767,0.024461,0.022857,0.024097,0.022029,0.021287,0.025411,0.019407,0.017961,0.017161,0.018012,0.015155,0.012751,0.011234,0.009811,0.009529,0.008315,0.007423,0.007160,0.006180,0.004768,0.003939,0.003785,0.003467,0.002139,0.001938,0.001662,0.001249,0.000883,0.000825,0.000686,0.000489,0.000428,0.000348,0.000253,0.000236,0.000166,0.000133,0.000082,0.000063,0.000046,0.000031,0.000025,0.000016,0.000014,0.000009,0.000006,0.000006,0.000003
0.000005,0.000005,0.000008,0.000013,0.000015,0.000026,0.000038,0.000039,0.000057,0.000091,0.000109,0.000141,0.000147,0.000240,0.000276,0.000411,0.000546,0.000692,0.000787,0.001147,0.001381,0.001605,0.001721,0.002337,0.002908,0.003151,0.004256,0.005502,0.006041,0.007127,0.008877,0.008286,0.010642,0.013037,0.012786,0.013144,0.016514,0.019978,0.022154,0.020188,0.024559,0.029974,0.025879,0.031574,0.027686,0.030538,0.034299,0.034826,0.036513,0.030800,0.039668,0.033375,0.036697,0.029020,0.028794,0.026572,0.026176,0.023294,0.025132,0.024035,0.020147,0.021360,0.019718,0.015188,0.016763,0.015306,0.013209,0.010813,0.008404,0.008324,0.008072,0.006372,0.004701,0.003429,0.003062,0.003154,0.002759,0.002050,0.001519,0.001362,0.001171,0.000792,0.000545,0.000535,0.000472,0.000313,0.000217,0.000199,0.000142,0.000124,0.000076,0.000046,0.000046,0.000030,0.000022,0.000018,0.000011,0.000008,0.000006,0.000004
0.000005,0.000009,0.000009,0.000013,0.000019,0.000025,0.000043,0.000056,0.000070,0.000117,0.000134,0.000200,0.000273,0.000300,0.000456,0.000588,0.000637,0.000780,0.001098,0.001274,0.001595,0.001692,0.002743,0.003186,0.003530,0.004234,0.005337,0.006798,0.007224,0.010954,0.008968,0.010670,0.014330,0.015950,0.018197,0.018731,0.021574,0.019348,0.029093,0.029820,0.032334,0.031456,0.032515,0.043850,0.036972,0.036621,0.039013,0.041968,0.036592,0.048062,0.041931,0.039240,0.038520,0.035970,0.038231,0.041149,0.033388,0.034184,0.033277,0.027273,0.025697,0.025326,0.025214,0.020011,0.017584,0.018597,0.014916,0.012323,0.009775,0.012580,0.009051,0.006673,0.005947,0.005590,0.003826,0.003765,0.002680,0.002273,0.002081,0.001735,0.001208,0.001010,0.000737,0.000739,0.000508,0.000395,0.000298,0.000257,0.000170,0.000126,0.000111,0.000071,0.000057,0.000035,0.000030,0.000019,0.000014,0.000010,0.000007,0.000005
0.000005,0.000010,0.000015,0.000017,0.000025,0.000027,0.000050,0.000069,0.000084,0.000121,0.000151,0.000196,0.000326,0.000346,0.000450,0.000549,0.000642,0.001045,0.001383,0.001582,0.002150,0.002672,0.003049,0.003975,0.004840,0.005717,0.007496,0.008180,0.010835,0.013292,0.014974,0.014224,0.014128,0.020670,0.019134,0.024214,0.026761,0.021778,0.036080,0.039815,0.035424,0.040477,0.037580,0.041696,0.047995,0.049417,0.043064,0.053292,0.041023,0.051317,0.047812,0.053926,0.053912,0.046264,0.049399,0.046516,0.038528,0.037353,0.041637,0.035425,0.032081,0.029792,0.030843,0.021715,0.024015,0.019453,0.020842,0.018409,0.014620,0.011946,0.009067,0.008370,0.006581,0.006304,0.006035,0.003934,0.004016,0.003160,0.003230,0.001718,0.001673,0.001220,0.001334,0.000800,0.000621,0.000554,0.000342,0.000262,0.000223,0.000151,0.000129,0.000075,0.000073,0.000046,0.000041,0.000023,0.000020,0.000012,0.000009,0.000006
0.000008,0.000013,0.000018,0.000022,0.000031,0.000047,0.000063,0.000085,0.000112,0.000146,0.000195,0.000259,0.000334,0.000451,0.000609,0.000796,0.000887,0.001296,0.001589,0.001622,0.002447,0.003092,0.004119,0.004548,0.005313,0.007233,0.009380,0.010426,0.012192,0.011530,0.012671,0.016551,0.023301,0.019626,0.022971,0.026589,0.034779,0.032567,0.041528,0.036565,0.047107,0.049226,0.056263,0.050709,0.059601,0.062842,0.054129,0.057249,0.063681,0.058707,0.062743,0.055463,0.066650,0.064120,0.064318,0.057215,0.050457,0.046920,0.044109,0.045485,0.045360,0.040537,0.033302,0.031334,0.028105,0.022294,0.021734,0.020293,0.018953,0.018143,0.012187,0.011729,0.010813,0.008967,0.005373,0.005649,0.005061,0.004220,0.003224,0.002567,0.001981,0.001709,0.001208,0.000925,0.000722,0.000523,0.000393,0.000310,0.000274,0.000208,0.000162,0.000115,0.000087,0.000067,0.000043,0.000033,0.000019,0.000015,0.000010,0.000009
0.000011,0.000012,0.000019,0.000026,0.000038,0.000043,0.000076,0.000092,0.000111,0.000198,0.000242,0.000374,0.000443,0.000524,0.000713,0.001081,0.001274,0.001713,0.002139,0.002376,0.003070,0.004464,0.004461,0.005824,0.007425,0.008752,0.010006,0.013608,0.013002,0.015427,0.018152,0.021398,0.020248,0.027324,0.030256,0.035277,0.039654,0.049764,0.040000,0.050008,0.058555,0.048557,0.067780,0.075797,0.068764,0.065898,0.074991,0.075557,0.077782,0.074779,0.070196,0.076091,0.074516,0.068803,0.064091,0.062152,0.069637,0.064384,0.050427,0.042342,0.044726,0.038792,0.042827,0.038052,0.035997,0.034521,0.029112,0.023306,0.023130,0.016683,0.015945,0.013617,0.011899,0.010041,0.009048,0.006801,0.006057,0.004521,0.004133,0.003432,0.002294,0.001775,0.001798,0.001159,0.001123,0.000683,0.000625,0.000453,0.000301,0.000215,0.000181,0.000146,0.000107,0.000087,0.000057,0.000038,0.000029,0.000019,0.000012,0.000008
0.000012,0.000015,0.000020,0.000034,0.000049,0.000064,0.000076,0.000125,0.000158,0.000233,0.000283,0.000456,0.000565,0.000663,0.000910,0.001101,0.001847,0.002022,0.002034,0.002544,0.004361,0.004014,0.005894,0.008818,0.008550,0.010314,0.014115,0.015118,0.017461,0.021539,0.024687,0.029313,0.030411,0.033822,0.041602,0.040885,0.048710,0.052913,0.056686,0.057193,0.066761,0.071370,0.079767,0.072779,0.074346,0.086140,0.089884,0.089323,0.075543,0.093939,0.077715,0.092843,0.088931,0.093827,0.080324,0.084396,0.060859,0.082800,0.067433,0.053243,0.064086,0.056697,0.053482,0.043082,0.044192,0.040283,0.034876,0.028435,0.025883,0.021804,0.016757,0.013985,0.014112,0.014042,0.011443,0.008864,0.006452,0.005935,0.004394,0.003183,0.003038,0.002540,0.001797,0.001508,0.001431,0.000987,0.000656,0.000516,0.000401,0.000346,0.000242,0.000153,0.000117,0.000088,0.000056,0.000046,0.000035,0.000021,0.000015,0.000010
0.000015,0.000019,0.000027,0.000041,0.000056,0.000077,0.000101,0.000137,0.000187,0.000287,0.000388,0.000511,0.000654,0.000836,0.000867,0.001305,0.001920,0.002198,0.002572,0.003955,0.004129,0.006124,0.007579,0.008354,0.009117,0.011881,0.015195,0.017907,0.018416,0.018672,0.027605,0.029703,0.034566,0.040975,0.046355,0.048744,0.058280,0.061177,0.058482,0.087380,0.077003,0.080360,0.094456,0.077281,0.090321,0.099190,0.101717,0.091490,0.093117,0.113216,0.114028,0.126581,0.117170,0.109011,0.094993,0.101866,0.077692,0.091217,0.093198,0.070714,0.080942,0.074244,0.063460,0.060060,0.048391,0.045792,0.034888,0.042316,0.036541,0.024084,0.022321,0.016708,0.017341,0.013913,0.010353,0.009487,0.008741,0.007292,0.004712,0.004530,0.003085,0.002798,0.002511,0.001753,0.001534,0.001127,0.000686,0.000555,0.000448,0.000394,0.000307,0.000211,0.000177,0.000112,0.000087,0.000062,0.000041,0.000024,0.000017,0.000016
0.000017,0.000026,0.000033,0.000042,0.000077,0.000112,0.000141,0.000157,0.000214,0.000343,0.000535,0.000596,0.000804,0.001003,0.001480,0.001506,0.002198,0.003157,0.002381,0.004706,0.005071,0.006754,0.006559,0.010681,0.013082,0.013665,0.017940,0.020399,0.024439,0.031593,0.027653,0.036348,0.037759,0.052630,0.055758,0.065501,0.085457,0.072941,0.090904,0.079874,0.089300,0.096562,0.114755,0.113606,0.121145,0.115049,0.128630,0.134784,0.135047,0.135605,0.134476,0.137481,0.105365,0.128162,0.132462,0.106687,0.112929,0.120944,0.104336,0.095178,0.080192,0.079080,0.089131,0.060286,0.047855,0.055815,0.045864,0.044878,0.038111,0.034375,0.031679,0.019909,0.019031,0.016753,0.014458,0.010443,0.008996,0.010902,0.005908,0.005071,0.003608,0.003356,0.002556,0.001818,0.001563,0.001260,0.000885,0.000804,0.000506,0.000526,0.000296,0.000245,0.000177,0.000132,0.000092,0.000078,0.000044,0.000038,0.000023,0.000015
0.000019,0.000027,0.000040,0.000054,0.000080,0.000107,0.000149,0.000180,0.000297,0.000321,0.000438,0.000633,0.000880,0.001142,0.001604,0.001912,0.002388,0.003201,0.004282,0.005181,0.006323,0.007949,0.007876,0.011262,0.014972,0.018001,0.024978,0.021245,0.032881,0.032220,0.042087,0.043298,0.052269,0.061312,0.071692,0.077824,0.086731,0.096844,0.112514,0.117718,0.098801,0.117645,0.135471,0.140033,0.108928,0.151461,0.157301,0.158952,0.170478,0.172576,0.165784,0.154979,0.152729,0.163415,0.167323,0.122797,0.137742,0.114894,0.124153,0.114072,0.107360,0.101348,0.073658,0.077766,0.079298,0.068936,0.063055,0.052697,0.042521,0.039937,0.030673,0.028570,0.023361,0.021461,0.016147,0.014186,0.012161,0.008988,0.008311,0.006821,0.004368,0.003713,0.002989,0.002786,0.001730,0.001727,0.001282,0.001012,0.000681,0.000533,0.000343,0.000279,0.000213,0.000125,0.000121,0.000071,0.000049,0.000037,0.000026,0.000019
0.000023,0.000035,0.000045,0.000051,0.000108,0.000121,0.000186,0.000266,0.000303,0.000467,0.000602,0.000850,0.001042,0.001351,0.002147,0.002265,0.003004,0.003474,0.004310,0.005780,0.007389,0.009931,0.009297,0.013147,0.018905,0.019407,0.027778,0.027073,0.035297,0.044577,0.046033,0.055591,0.061416,0.071739,0.077525,0.094283,0.085517,0.106534,0.090086,0.114482,0.127822,0.099812,0.154765,0.151064,0.144579,0.182207,0.162222,0.165620,0.206189,0.176612,0.167447,0.157202,0.180152,0.212471,0.187889,0.132120,0.141881,0.153932,0.134186,0.121808,0.101918,0.114571,0.111950,0.098653,0.079853,0.072481,0.059685,0.061444,0.052626,0.042344,0.039899,0.035033,0.031072,0.026617,0.022071,0.017643,0.013114,0.011150,0.009311,0.006648,0.005525,0.004384,0.003916,0.002825,0.002103,0.001770,0.001461,0.001073,0.000862,0.000606,0.000446,0.000385,0.000272,0.000179,0.000135,0.000087,0.000071,0.000049,0.000037,0.000020
0.000024,0.000030,0.000056,0.000085,0.000099,0.000152,0.000184,0.000257,0.000403,0.000512,0.000593,0.000846,0.001231,0.001606,0.002381,0.002734,0.003796,0.004219,0.005440,0.007110,0.009995,0.012103,0.014408,0.015635,0.017854,0.024549,0.030646,0.034353,0.036134,0.041613,0.048544,0.067066,0.079144,0.079984,0.078320,0.087972,0.096053,0.126053,0.142396,0.153543,0.155783,0.151785,0.184708,0.176488,0.161215,0.171126,0.197679,0.234646,0.192396,0.220989,0.196229,0.180688,0.216391,0.234173,0.224887,0.207827,0.192713,0.164511,0.151275,0.173462,0.152406,0.139105,0.134603,0.111700,0.101489,0.102117,0.077377,0.072507,0.057022,0.045413,0.046911,0.041714,0.033048,0.024703,0.022064,0.020311,0.016502,0.012710,0.010761,0.007750,0.007600,0.005206,0.004483,0.004336,0.002713,0.002284,0.001619,0.001254,0.000978,0.000779,0.000481,0.000412,0.000251,0.000186,0.000139,0.000107,0.000079,0.000047,0.000040,0.000023
0.000033,0.000042,0.000065,0.000082,0.000130,0.000176,0.000239,0.000320,0.000486,0.000553,0.000907,0.001130,0.001301,0.001939,0.002419,0.002848,0.003909,0.005550,0.007118,0.009422,0.012176,0.011182,0.016007,0.019817,0.020673,0.030251,0.033853,0.034252,0.046870,0.047974,0.063685,0.069331,0.081432,0.106273,0.110991,0.112740,0.106221,0.110236,0.146997,0.143172,0.174289,0.204094,0.186961,0.182976,0.214135,0.255176,0.219364,0.199118,0.260213,0.231895,0.235056,0.259870,0.220403,0.199061,0.235404,0.198987,0.238521,0.185990,0.229155,0.197728,0.146507,0.144704,0.131140,0.096308,0.125378,0.105919,0.082151,0.084126,0.075221,0.044700,0.062601,0.040484,0.040504,0.023920,0.029477,0.024206,0.017228,0.013025,0.013601,0.011431,0.008159,0.005871,0.005466,0.004005,0.002722,0.002415,0.001560,0.001431,0.001069,0.000813,0.000672,0.000441,0.000424,0.000199,0.000155,0.000132,0.000089,0.000075,0.000035,0.000028
0.000031,0.000046,0.000063,0.000089,0.000138,0.000199,0.000289,0.000329,0.000501,0.000640,0.001053,0.001264,0.001856,0.002405,0.002517,0.003622,0.005484,0.005991,0.007472,0.010594,0.010498,0.016298,0.016445,0.019839,0.026925,0.024314,0.035404,0.046381,0.048444,0.074829,0.075705,0.078359,0.097701,0.101250,0.123311,0.140025,0.172453,0.157458,0.166650,0.218212,0.208658,0.220802,0.232051,0.285545,0.266909,0.268012,0.308396,0.266591,0.299462,0.231378,0.255629,0.262377,0.238812,0.286368,0.242910,0.255747,0.260236,0.170485,0.215872,0.200592,0.205045,0.204265,0.168190,0.134401,0.117192,0.108683,0.094401,0.092424,0.093523,0.063671,0.059235,0.041606,0.047210,0.036706,0.028973,0.023662,0.022459,0.018012,0.017396,0.012197,0.010500,0.006908,0.005580,0.004494,0.003035,0.003275,0.002021,0.001510,0.001315,0.000921,0.000669,0.000545,0.000328,0.000253,0.000152,0.000161,0.000103,0.000072,0.000056,0.000035
0.000036,0.000048,0.000074,0.000112,0.000172,0.000211,0.000269,0.000414,0.000597,0.000886,0.000878,0.001563,0.001856,0.002585,0.002619,0.003852,0.004621,0.007303,0.008111,0.010177,0.012430,0.014446,0.023214,0.020056,0.031786,0.042266,0.042217,0.052202,0.071444,0.073434,0.097881,0.100989,0.107986,0.120655,0.133157,0.130594,0.152629,0.183253,0.181997,0.168861,0.234156,0.236162,0.278616,0.283615,0.359252,0.294301,0.270713,0.304919,0.320985,0.305839,0.411697,0.314251,0.233600,0.271701,0.321904,0.292960,0.234552,0.284157,0.248181,0.310589,0.225959,0.207680,0.181274,0.159491,0.168837,0.127715,0.108440,0.123468,0.101972,0.068809,0.073832,0.062961,0.055770,0.043772,0.039663,0.027259,0.023406,0.020845,0.018017,0.015101,0.011706,0.007940,0.007082,0.005308,0.003482,0.003433,0.002199,0.001858,0.001554,0.000954,0.000698,0.000619,0.000488,0.000363,0.000223,0.000171,0.000120,0.000091,0.000054,0.000038
0.000042,0.000068,0.000086,0.000112,0.000194,0.000224,0.000365,0.000327,0.000700,0.000818,0.001425,0.001522,0.002245,0.002678,0.003598,0.004474,0.005739,0.007652,0.008797,0.012275,0.015831,0.016621,0.023189,0.028040,0.036558,0.038004,0.057206,0.057870,0.055267,0.076147,0.090165,0.112221,0.136978,0.127531,0.145928,0.202691,0.207043,0.189409,0.254924,0.253291,0.281784,0.272515,0.277502,0.297746,0.329057,0.287261,0.408460,0.333870,0.326474,0.419658,0.381197,0.333131,0.379128,0.280975,0.400467,0.332196,0.291986,0.355307,0.274410,0.254435,0.235282,0.229520,0.185815,0.177934,0.182543,0.175116,0.146475,0.116587,0.107250,0.097035,0.068905,0.066781,0.054232,0.055760,0.042080,0.031503,0.025516,0.022044,0.017997,0.016353,0.011491,0.008152,0.007067,0.006095,0.004854,0.003826,0.003127,0.002281,0.001567,0.001101,0.000897,0.000769,0.000548,0.000356,0.000251,0.000175,0.000136,0.000100,0.000055,0.000049
0.000036,0.000075,0.000099,0.000147,0.000161,0.000296,0.000389,0.000485,0.000734,0.000877,0.001197,0.001901,0.002161,0.003287,0.004129,0.004787,0.006742,0.010673,0.010552,0.012056,0.016281,0.019535,0.021644,0.030001,0.037997,0.051635,0.043423,0.066386,0.070752,0.079253,0.099359,0.123451,0.149533,0.151278,0.161877,0.195602,0.223158,0.232543,0.264312,0.287601,0.278292,0.283050,0.336554,0.368522,0.330722,0.374225,0.373021,0.377525,0.365035,0.398725,0.386384,0.417810,0.447965,0.347668,0.403542,0.346622,0.324037,0.353343,0.319533,0.326228,0.235140,0.224250,0.235424,0.183186,0.193483,0.160075,0.152315,0.123014,0.101687,0.113400,0.080630,0.075613,0.059641,0.053006,0.040217,0.040316,0.024449,0.025611,0.021574,0.017966,0.011730,0.008925,0.009252,0.007074,0.004159,0.003694,0.002896,0.002093,0.001729,0.001337,0.000922,0.000637,0.000507,0.000354,0.000276,0.000227,0.000165,0.000104,0.000077,0.000049
0.000065,0.000082,0.000113,0.000155,0.000200,0.000277,0.000401,0.000521,0.000871,0.001141,0.001533,0.002154,0.002355,0.003378,0.004983,0.005669,0.006025,0.007953,0.012799,0.015766,0.022662,0.025105,0.025796,0.036006,0.041396,0.058848,0.056895,0.072122,0.091096,0.109566,0.108526,0.174340,0.150155,0.182278,0.190685,0.201779,0.200416,0.244556,0.280834,0.282844,0.327693,0.329579,0.368686,0.428564,0.394635,0.425867,0.441549,0.473288,0.492090,0.508704,0.481124,0.468603,0.431419,0.345277,0.468699,0.404027,0.382159,0.427445,0.342967,0.329530,0.349163,0.278722,0.303640,0.235508,0.205754,0.170873,0.176305,0.143804,0.123049,0.091412,0.101901,0.081137,0.074681,0.061323,0.045079,0.043599,0.036673,0.028429,0.025584,0.019123,0.015201,0.008295,0.010176,0.009456,0.006120,0.004312,0.003757,0.002890,0.002138,0.001598,0.000954,0.000887,0.000487,0.000474,0.000350,0.000244,0.000175,0.000120,0.000092,0.000064
0.000065,0.000078,0.000129,0.000222,0.000218,0.000318,0.000489,0.000605,0.000800,0.001487,0.001843,0.002013,0.002898,0.003154,0.004524,0.008773,0.008769,0.010137,0.011351,0.018043,0.024369,0.023143,0.027425,0.039147,0.050056,0.048168,0.066076,0.079569,0.086043,0.113109,0.102266,0.146113,0.168310,0.165238,0.194890,0.260957,0.315178,0.313508,0.328141,0.308504,0.376439,0.369771,0.468128,0.392448,0.479156,0.480237,0.536347,0.456661,0.422377,0.542320,0.574429,0.596386,0.619442,0.434104,0.401941,0.444100,0.408977,0.418888,0.351661,0.304146,0.346724,0.269462,0.276906,0.257754,0.265034,0.236312,0.177899,0.185909,0.151522,0.104542,0.115102,0.090812,0.072226,0.071863,0.056781,0.048638,0.045567,0.030873,0.026099,0.018175,0.016217,0.014109,0.010890,0.006687,0.006739,0.005192,0.004488,0.003292,0.002210,0.001823,0.001287,0.000935,0.000611,0.000515,0.000355,0.000251,0.000184,0.000121,0.000093,0.000058
0.000064,0.000111,0.000099,0.000223,0.000292,0.000443,0.000437,0.000725,0.001120,0.001366,0.001854,0.002472,0.003136,0.003231,0.005938,0.009537,0.009202,0.011538,0.014619,0.020148,0.024330,0.029467,0.038369,0.045823,0.061853,0.063219,0.075195,0.087659,0.103310,0.093085,0.146638,0.165716,0.215448,0.211188,0.221140,0.270044,0.304348,0.299208,0.381679,0.398627,0.389165,0.423971,0.479810,0.493204,0.555583,0.500107,0.578259,0.554320,0.542199,0.529182,0.600930,0.660236,0.515240,0.611460,0.552796,0.572102,0.441744,0.401789,0.453308,0.480388,0.438753,0.336563,0.337233,0.325324,0.271831,0.240519,0.204648,0.197196,0.159020,0.132696,0.114646,0.122737,0.098050,0.069514,0.049832,0.056957,0.040337,0.032035,0.032714,0.023026,0.020747,0.013285,0.010406,0.008207,0.006362,0.005659,0.004787,0.003190,0.002888,0.001708,0.001285,0.000917,0.000752,0.000523,0.000418,0.000297,0.000220,0.000143,0.000104,0.000059
0.000086,0.000113,0.000148,0.000164,0.000352,0.000409,0.000464,0.000782,0.000992,0.001534,0.002454,0.003082,0.003934,0.003821,0.006050,0.008660,0.010053,0.012822,0.017334,0.017097,0.026584,0.032423,0.035953,0.050846,0.061456,0.091361,0.066489,0.104727,0.120001,0.119546,0.120944,0.173553,0.194974,0.209698,0.216713,0.287317,0.372332,0.391779,0.345591,0.367836,0.454024,0.499566,0.555150,0.501378,0.525254,0.624017,0.568077,0.575702,0.618733,0.732267,0.671003,0.674939,0.522420,0.560132,0.562334,0.486877,0.627401,0.456727,0.539757,0.394668,0.410709,0.331979,0.307702,0.318533,0.299342,0.310650,0.245272,0.223168,0.199210,0.166635,0.135027,0.110896,0.085536,0.072719,0.074057,0.060288,0.053356,0.035501,0.034990,0.025685,0.018707,0.016432,0.010612,0.009291,0.007034,0.005150,0.004898,0.003473,0.002313,0.001901,0.001544,0.000918,0.000846,0.000623,0.000459,0.000313,0.000260,0.000168,0.000100,0.000078
0.000068,0.000114,0.000189,0.000248,0.000322,0.000456,0.000564,0.001047,0.000975,0.001462,0.002759,0.002914,0.004040,0.004881,0.006009,0.009085,0.011671,0.015785,0.014953,0.022992,0.026360,0.034282,0.036612,0.043867,0.061731,0.071975,0.092378,0.102946,0.137466,0.184793,0.160573,0.201441,0.235151,0.264722,0.261668,0.287173,0.353211,0.374130,0.377748,0.443639,0.393846,0.510458,0.576278,0.665402,0.596587,0.716284,0.694318,0.643499,0.733816,0.724597,0.698429,0.733222,0.642370,0.808596,0.653454,0.584572,0.552108,0.498954,0.520991,0.482338,0.365775,0.407733,0.341102,0.365602,0.391108,0.268588,0.213785,0.211932,0.202284,0.185707,0.132892,0.128345,0.115226,0.085719,0.084414,0.060147,0.049636,0.037669,0.035785,0.028666,0.025344,0.016742,0.012951,0.011145,0.007935,0.006693,0.004355,0.004332,0.002451,0.001972,0.001802,0.001087,0.000904,0.000621,0.000475,0.000393,0.000243,0.000159,0.000116,0.000093
0.000088,0.000127,0.000161,0.000219,0.000387,0.000543,0.000620,0.000889,0.001462,0.002026,0.002361,0.003006,0.004322,0.005047,0.007552,0.007906,0.012851,0.015154,0.020014,0.021520,0.031606,0.038350,0.042057,0.046128,0.062095,0.083010,0.101314,0.082276,0.119233,0.153157,0.172721,0.193488,0.212606,0.212180,0.276429,0.273076,0.374141,0.440586,0.472045,0.343795,0.538937,0.546137,0.642776,0.624429,0.718534,0.749267,0.605304,0.837122,0.686371,0.781921,0.609099,0.628667,0.708978,0.713085,0.751476,0.710860,0.605292,0.648214,0.509560,0.614287,0.559730,0.448361,0.354269,0.362749,0.350013,0.315971,0.244051,0.236596,0.174931,0.203722,0.162143,0.102882,0.129989,0.077648,0.084396,0.066944,0.050005,0.047753,0.030680,0.026684,0.024154,0.020330,0.015013,0.011199,0.008486,0.007257,0.006631,0.004294,0.002772,0.002038,0.001728,0.001272,0.000899,0.000600,0.000454,0.000349,0.000280,0.000170,0.000126,0.000087
0.000092,0.000132,0.000211,0.000266,0.000403,0.000516,0.000649,0.000983,0.001364,0.001878,0.002013,0.003465,0.003747,0.005334,0.007687,0.009118,0.013429,0.015660,0.021410,0.024218,0.034907,0.034266,0.043696,0.061067,0.073900,0.087370,0.091394,0.113640,0.138014,0.131062,0.205781,0.240151,0.230036,0.226960,0.335651,0.320149,0.352638,0.530720,0.546641,0.405082,0.575952,0.539015,0.617864,0.582818,0.701619,0.695527,0.834457,0.708896,0.654689,0.696513,0.707986,0.857637,0.800651,0.806781,0.666418,0.715161,0.675477,0.593795,0.591475,0.585912,0.496629,0.448963,0.370032,0.320984,0.395969,0.316706,0.310925,0.203831,0.231976,0.182223,0.152312,0.119517,0.104056,0.105977,0.074867,0.086064,0.058626,0.047561,0.034176,0.031657,0.026334,0.020801,0.013407,0.013131,0.010504,0.006166,0.004989,0.004575,0.003359,0.002561,0.001737,0.001428,0.001002,0.000642,0.000562,0.000431,0.000243,0.000189,0.000133,0.000106
0.000104,0.000119,0.000212,0.000294,0.000363,0.000622,0.000645,0.000901,0.001521,0.002071,0.002542,0.003417,0.004196,0.006121,0.007755,0.009634,0.012566,0.016916,0.019379,0.028792,0.033740,0.045317,0.054884,0.063554,0.071029,0.101063,0.104210,0.129159,0.141874,0.158306,0.145466,0.273692,0.286866,0.347810,0.385492,0.351473,0.417997,0.461224,0.562942,0.540070,0.583782,0.684800,0.669132,0.688687,0.733656,0.780374,0.867781,0.865265,0.834716,0.760008,0.898711,0.730690,0.804498,0.766199,0.868738,0.648604,0.575786,0.667564,0.687400,0.605512,0.592647,0.582092,0.414979,0.355080,0.373827,0.351075,0.349908,0.289053,0.246842,0.187997,0.178100,0.137258,0.141652,0.095896,0.091848,0.085404,0.059147,0.052229,0.037015,0.038985,0.024781,0.024398,0.017663,0.011351,0.010123,0.007027,0.005678,0.004576,0.003493,0.002560,0.002032,0.001553,0.001260,0.000769,0.000540,0.000453,0.000322,0.000220,0.000154,0.000098
0.000109,0.000147,0.000215,0.000327,0.000444,0.000573,0.000844,0.001072,0.001476,0.001873,0.002542,0.003863,0.004989,0.005995,0.009930,0.011391,0.013815,0.019017,0.019009,0.028935,0.041778,0.043833,0.055780,0.058822,0.080455,0.104721,0.098961,0.146160,0.154964,0.175222,0.231298,0.245659,0.296041,0.310292,0.390972,0.413459,0.444418,0.554428,0.520699,0.634974,0.592967,0.672136,0.652676,0.766094,0.740843,0.827206,0.820096,0.839990,0.788093,0.910769,0.838523,0.713380,0.772920,0.795695,0.719888,0.826982,0.649470,0.603578,0.773767,0.605722,0.529876,0.598901,0.438945,0.405464,0.466849,0.297964,0.287808,0.275029,0.286225,0.189949,0.189347,0.159055,0.140283,0.095108,0.115553,0.075057,0.069427,0.049507,0.047881,0.033093,0.025243,0.022908,0.020540,0.015483,0.009891,0.009583,0.006407,0.004491,0.003611,0.003149,0.002253,0.001483,0.001174,0.000742,0.000508,0.000404,0.000287,0.000194,0.000140,0.000099
0.000101,0.000145,0.000229,0.000309,0.000412,0.000684,0.000721,0.001019,0.001438,0.002349,0.002681,0.003814,0.004933,0.006284,0.009270,0.011845,0.015018,0.017210,0.024396,0.028883,0.039058,0.048601,0.057320,0.076239,0.088514,0.089339,0.136826,0.158609,0.169871,0.204420,0.209899,0.252818,0.321287,0.264399,0.409011,0.438786,0.388473,0.450014,0.477210,0.498409,0.614545,0.725110,0.756012,0.927158,0.769939,0.779043,0.890020,0.877284,1.045221,1.001278,0.917191,1.168471,0.741338,0.788453,0.834088,0.584391,0.802211,0.714481,0.589828,0.658110,0.633380,0.628367,0.481791,0.438290,0.409452,0.379495,0.343654,0.292173,0.256730,0.233593,0.218532,0.169743,0.140983,0.118394,0.111089,0.066810,0.062014,0.043585,0.045177,0.036992,0.028846,0.024643,0.017615,0.014890,0.011869,0.008262,0.007208,0.004880,0.004228,0.002778,0.002254,0.001564,0.001151,0.000813,0.000681,0.000476,0.000307,0.000202,0.000153,0.000097
0.000114,0.000148,0.000197,0.000382,0.000533,0.000684,0.000899,0.001224,0.001151,0.002332,0.002672,0.004003,0.005986,0.007382,0.008964,0.011849,0.013157,0.020041,0.026219,0.032310,0.037554,0.042367,0.060119,0.070615,0.093070,0.097882,0.126669,0.130973,0.159434,0.195068,0.199981,0.249202,0.282330,0.283926,0.410078,0.395172,0.474404,0.618282,0.437322,0.661215,0.552787,0.727552,0.987153,0.798022,0.918584,0.860786,0.974403,0.734636,0.840769,0.925020,0.978934,0.950017,0.854022,0.901746,0.888228,0.789777,0.822808,0.632276,0.720057,0.792351,0.670895,0.604863,0.436987,0.502698,0.386180,0.413416,0.298927,0.331964,0.271027,0.247244,0.176295,0.212600,0.141145,0.127950,0.107958,0.081852,0.071293,0.058007,0.055922,0.038647,0.030527,0.023339,0.018898,0.015544,0.012871,0.008039,0.007148,0.005523,0.003949,0.003275,0.002236,0.001773,0.001222,0.000894,0.000801,0.000504,0.000353,0.000227,0.000157,0.000127
0.000116,0.000150,0.000239,0.000323,0.000475,0.000649,0.000988,0.001364,0.001818,0.002044,0.003126,0.004320,0.006192,0.007726,0.009594,0.011661,0.013891,0.016657,0.026428,0.036498,0.040556,0.048642,0.059696,0.073377,0.092896,0.109042,0.122595,0.160226,0.189018,0.206283,0.236322,0.259078,0.342003,0.348636,0.417180,0.478214,0.497468,0.473450,0.533660,0.669178,0.761460,0.792390,0.785138,0.865368,0.809986,0.835138,0.883986,1.029676,0.964347,1.118636,0.857566,0.885278,0.806890,0.778408,0.982152,0.989584,0.723542,0.722933,0.701404,0.654630,0.702258,0.634033,0.511232,0.448633,0.440904,0.395332,0.374824,0.301918,0.229112,0.200336,0.208574,0.144259,0.146132,0.122800,0.114639,0.088913,0.074567,0.063163,0.047807,0.035517,0.026787,0.022696,0.017716,0.013591,0.009988,0.008998,0.006590,0.004959,0.004343,0.002943,0.002295,0.001853,0.001377,0.000929,0.000610,0.000554,0.000326,0.000234,0.000176,0.000103
0.000128,0.000164,0.000285,0.000359,0.000567,0.000619,0.000936,0.001336,0.001698,0.002373,0.003838,0.004797,0.005258,0.009110,0.009626,0.011198,0.015166,0.020029,0.027486,0.030070,0.044360,0.053809,0.055000,0.076126,0.102050,0.107143,0.116655,0.155837,0.186549,0.208386,0.247441,0.230656,0.322776,0.370582,0.434700,0.481612,0.464299,0.546928,0.669179,0.613506,0.746160,0.862873,0.791252,0.937300,0.870397,0.913488,0.985263,0.969883,1.167224,0.963929,0.994970,0.970029,1.024237,0.854883,0.877933,0.918123,0.931018,0.855247,0.790327,0.686014,0.684398,0.561745,0.507866,0.468921,0.374004,0.389828,0.364317,0.330992,0.265219,0.238417,0.172719,0.147996,0.165654,0.135377,0.122251,0.071774,0.075039,0.067714,0.049416,0.041424,0.032424,0.021135,0.020070,0.014899,0.013826,0.010734,0.006597,0.005565,0.004909,0.003314,0.002123,0.001959,0.001244,0.000790,0.000679,0.000424,0.000272,0.000263,0.000195,0.000117
0.000136,0.000140,0.000252,0.000376,0.000473,0.000616,0.000959,0.001212,0.001739,0.002290,0.002987,0.004478,0.006160,0.007658,0.009852,0.012530,0.016201,0.018557,0.022852,0.028150,0.038953,0.055291,0.065005,0.080864,0.107868,0.137092,0.131742,0.151249,0.172987,0.191504,0.234968,0.280616,0.320489,0.377167,0.380408,0.452412,0.528641,0.540416,0.576656,0.659932,0.634539,0.727772,0.875872,0.892412,0.795726,1.068911,1.013289,0.927194,1.087290,1.062008,0.947778,0.990395,0.959217,0.846757,0.834514,0.957728,0.843539,0.944549,0.773449,0.679506,0.658815,0.618205,0.514332,0.520783,0.515780,0.411421,0.327863,0.298901,0.239994,0.232340,0.214536,0.176458,0.144478,0.140293,0.111468,0.102877,0.077348,0.050432,0.049075,0.041426,0.030043,0.022362,0.018680,0.016341,0.011234,0.010099,0.006317,0.005247,0.004781,0.003613,0.002366,0.001438,0.001412,0.000980,0.000773,0.000454,0.000283,0.000276,0.000207,0.000113
0.000137,0.000194,0.000252,0.000358,0.000527,0.000674,0.000921,0.001099,0.001860,0.002442,0.003150,0.005028,0.006502,0.007532,0.010198,0.014053,0.019095,0.019291,0.027631,0.028974,0.040518,0.050144,0.057019,0.087295,0.074290,0.115007,0.153551,0.155992,0.187949,0.238440,0.210864,0.259163,0.379186,0.406758,0.447827,0.417637,0.449504,0.498122,0.632100,0.812420,0.611242,0.807781,0.685531,0.781063,0.947994,0.910120,0.990650,0.980062,0.989183,0.998501,0.851019,0.785749,0.795479,0.971203,1.058853,0.885708,0.867589,0.852035,0.721108,0.687638,0.676020,0.545670,0.544964,0.482784,0.406887,0.327017,0.386248,0.307139,0.280007,0.262071,0.230149,0.167000,0.146118,0.140377,0.109001,0.104703,0.072539,0.063964,0.057063,0.031153,0.034165,0.030704,0.022771,0.014955,0.010162,0.007560,0.007203,0.004941,0.004106,0.003181,0.002406,0.001572,0.001208,0.000948,0.000545,0.000506,0.000306,0.000225,0.000214,0.000114
0.000113,0.000186,0.000233,0.000386,0.000495,0.000663,0.000815,0.001505,0.001534,0.002355,0.003619,0.003441,0.005889,0.007058,0.009167,0.013155,0.017486,0.021221,0.024593,0.029688,0.050566,0.041197,0.055461,0.073763,0.075381,0.114994,0.135034,0.155170,0.200903,0.205615,0.277007,0.319906,0.371008,0.379779,0.363838,0.502711,0.482186,0.489179,0.627739,0.573059,0.689560,0.818258,0.904268,0.841690,0.916295,0.859691,0.819446,0.965764,1.038338,1.107360,1.037416,0.919958,1.012105,1.099912,0.961101,0.860026,0.864817,0.820490,0.627741,0.704819,0.686540,0.629403,0.628742,0.448697,0.474539,0.464720,0.414017,0.341963,0.262058,0.275462,0.190636,0.163906,0.203694,0.128684,0.107202,0.091583,0.064545,0.063104,0.055900,0.049923,0.035985,0.022718,0.022227,0.017516,0.012710,0.009218,0.007273,0.006636,0.005274,0.003312,0.002561,0.001839,0.001220,0.001019,0.000560,0.000380,0.000375,0.000204,0.000159,0.000120
0.000123,0.000175,0.000249,0.000364,0.000394,0.000660,0.000946,0.001571,0.001645,0.002353,0.003608,0.004092,0.006584,0.007288,0.008912,0.012750,0.015365,0.018182,0.024461,0.030360,0.038645,0.044694,0.055041,0.062180,0.082621,0.100206,0.135063,0.156636,0.199594,0.202032,0.250220,0.286529,0.249529,0.362171,0.435750,0.452219,0.513142,0.594788,0.475758,0.693274,0.760412,0.759935,0.738273,0.793344,0.926660,1.047496,0.916308,1.146832,1.219943,0.958450,0.907223,1.035671,0.879856,1.152696,0.744490,0.949235,0.802503,0.893215,0.668251,0.756000,0.612664,0.679852,0.558408,0.479657,0.500054,0.424398,0.359101,0.315198,0.245791,0.274810,0.207503,0.198864,0.179051,0.133916,0.111134,0.087449,0.077735,0.061949,0.051137,0.046147,0.026390,0.027243,0.020964,0.015055,0.013940,0.008143,0.007329,0.006157,0.004701,0.002370,0.002586,0.001961,0.001199,0.001032,0.000671,0.000419,0.000335,0.000210,0.000163,0.000124
0.000106,0.000172,0.000252,0.000320,0.000439,0.000745,0.001026,0.001300,0.001949,0.002119,0.003324,0.004322,0.006175,0.007288,0.009887,0.013152,0.014845,0.018192,0.021565,0.033919,0.043759,0.050550,0.066049,0.081606,0.071771,0.093681,0.113121,0.155831,0.190870,0.212830,0.224706,0.279544,0.328633,0.397200,0.370712,0.405723,0.470107,0.474048,0.676485,0.665396,0.759972,0.892810,0.839986,0.895963,0.872176,0.986459,0.749664,0.849407,1.105020,0.973343,0.927311,0.972706,1.084102,0.770269,0.936275,1.077165,0.683576,0.852745,0.704058,0.707745,0.687747,0.535072,0.573707,0.466345,0.473275,0.426637,0.327222,0.267639,0.277892,0.253586,0.234407,0.171281,0.168765,0.121452,0.105269,0.096430,0.067090,0.060093,0.046993,0.044817,0.029742,0.025712,0.019618,0.014593,0.013851,0.008960,0.007046,0.005467,0.004320,0.003021,0.002414,0.001592,0.001051,0.000813,0.000749,0.000399,0.000336,0.000216,0.000206,0.000123
0.000105,0.000156,0.000251,0.000278,0.000506,0.000643,0.001075,0.001132,0.001813,0.002237,0.003419,0.003785,0.005577,0.005907,0.011094,0.012777,0.017874,0.016755,0.027730,0.024827,0.042304,0.052233,0.065272,0.065757,0.084603,0.113796,0.127839,0.138898,0.173877,0.202841,0.265298,0.309991,0.284012,0.424102,0.357170,0.452780,0.510123,0.466328,0.707241,0.658195,0.722952,0.661422,0.799057,0.944668,0.791984,0.840846,0.878935,0.881841,0.822184,0.811062,0.827212,0.790469,0.939182,0.945630,0.736552,0.832507,0.807867,0.587138,0.713104,0.634059,0.569780,0.575871,0.623911,0.523308,0.458136,0.421456,0.312375,0.293708,0.249093,0.226624,0.238021,0.183215,0.163162,0.144734,0.097368,0.094150,0.080553,0.071000,0.046573,0.042458,0.030520,0.026704,0.022968,0.016221,0.011597,0.007561,0.007526,0.006087,0.003690,0.003163,0.002124,0.001661,0.001436,0.000974,0.000888,0.000510,0.000303,0.000210,0.000175,0.000108
0.000114,0.000181,0.000225,0.000391,0.000460,0.000717,0.000851,0.001366,0.001448,0.002417,0.003274,0.003499,0.005767,0.006779,0.008786,0.009827,0.019161,0.014903,0.024683,0.031181,0.044006,0.049165,0.047568,0.079136,0.082329,0.100351,0.131586,0.129476,0.159409,0.187954,0.238112,0.217190,0.292387,0.342421,0.366685,0.451304,0.458059,0.581966,0.568904,0.618829,0.717573,0.677331,0.749974,0.793132,0.823609,0.798263,0.817377,0.931093,0.937685,0.955500,0.871544,0.875428,0.928047,0.829425,0.929935,0.950069,0.670481,0.619765,0.795646,0.776478,0.501213,0.487394,0.558734,0.485852,0.391777,0.395121,0.299098,0.389113,0.297561,0.218708,0.198336,0.173405,0.144219,0.113317,0.092854,0.084104,0.068215,0.051036,0.045283,0.036673,0.023603,0.023715,0.015038,0.013700,0.012530,0.009671,0.006860,0.005346,0.004694,0.003045,0.001934,0.001585,0.001371,0.000904,0.000851,0.000433,0.000392,0.000232,0.000155,0.000118
0.000127,0.000156,0.000220,0.000299,0.000396,0.000588,0.000718,0.001106,0.001248,0.002541,0.002792,0.004104,0.005210,0.007210,0.007853,0.011321,0.014748,0.018205,0.025730,0.027078,0.038528,0.042519,0.054814,0.063845,0.084179,0.105084,0.101444,0.152831,0.167489,0.193573,0.193333,0.262949,0.272117,0.321275,0.322019,0.352962,0.418113,0.504160,0.605503,0.613657,0.755086,0.691610,0.675601,0.847027,0.697914,0.947899,0.847252,1.036683,0.981978,0.902041,0.933313,0.874156,0.805672,0.762951,0.945927,0.757553,0.753593,0.667153,0.645461,0.586501,0.606803,0.583905,0.510596,0.483174,0.411108,0.422767,0.342310,0.304864,0.311257,0.195396,0.219544,0.137596,0.115127,0.104138,0.104677,0.077554,0.073697,0.056758,0.048379,0.032214,0.021746,0.022743,0.019136,0.015912,0.011159,0.009636,0.006314,0.005352,0.003823,0.003385,0.002183,0.001590,0.001095,0.000969,0.000684,0.000580,0.000310,0.000216,0.000180,0.000116
0.000098,0.000141,0.000259,0.000307,0.000400,0.000652,0.000834,0.001072,0.001444,0.001830,0.002897,0.003926,0.004688,0.006052,0.008161,0.010352,0.013215,0.019744,0.025756,0.031187,0.026390,0.053068,0.054580,0.074601,0.080830,0.086573,0.125337,0.130431,0.149447,0.221549,0.225006,0.217813,0.323180,0.347710,0.354853,0.469386,0.479248,0.500652,0.486894,0.556771,0.509903,0.658393,0.725484,0.682087,0.740266,0.797370,0.849474,0.858355,0.718866,0.900645,0.989905,0.856113,0.880588,0.827043,0.780348,0.733257,0.748373,0.635582,0.681103,0.594350,0.582418,0.591628,0.534721,0.418250,0.432361,0.314644,0.325689,0.283997,0.247300,0.236515,0.180002,0.168759,0.130814,0.105577,0.089088,0.080606,0.076112,0.055591,0.047735,0.033379,0.023339,0.023785,0.018875,0.011779,0.010605,0.009068,0.006240,0.005100,0.003657,0.002872,0.002026,0.001463,0.001185,0.000836,0.000632,0.000461,0.000280,0.000250,0.000128,0.000104
0.000104,0.000163,0.000158,0.000305,0.000415,0.000535,0.000809,0.001164,0.001486,0.002434,0.002560,0.003615,0.004812,0.006397,0.007557,0.008181,0.011322,0.016495,0.018836,0.024405,0.030433,0.041466,0.047484,0.056695,0.069521,0.097727,0.133360,0.144596,0.143952,0.183138,0.165100,0.216486,0.296856,0.284033,0.373905,0.294985,0.441419,0.416866,0.530215,0.450628,0.611264,0.609862,0.735906,0.707516,0.895723,0.769022,0.842088,0.883198,0.829927,0.840071,0.720641,0.671224,0.800036,0.740860,0.686448,0.775165,0.710208,0.555657,0.680260,0.588528,0.554473,0.557601,0.560326,0.504578,0.347042,0.334015,0.275764,0.253280,0.237903,0.183153,0.158551,0.145081,0.136323,0.099556,0.081249,0.088537,0.059572,0.040574,0.047941,0.034941,0.029079,0.020580,0.016877,0.012218,0.011452,0.008736,0.007096,0.004786,0.003524,0.002638,0.001996,0.001565,0.001214,0.000722,0.000532,0.000438,0.000297,0.000220,0.000137,0.000098
0.000093,0.000133,0.000236,0.000276,0.000344,0.000541,0.000718,0.000868,0.001501,0.002137,0.002264,0.003444,0.004396,0.006318,0.007243,0.008397,0.013644,0.015471,0.021329,0.025185,0.032976,0.042179,0.051313,0.051676,0.064658,0.069235,0.085162,0.108408,0.153383,0.153087,0.169673,0.223805,0.262836,0.240289,0.309408,0.296352,0.415099,0.423510,0.572003,0.481660,0.547538,0.559942,0.666339,0.645085,0.801029,0.736807,0.722674,0.805918,0.755417,0.714925,0.792668,0.780023,0.765710,0.736919,0.799290,0.624360,0.565640,0.581451,0.601782,0.457918,0.602222,0.423431,0.409678,0.396947,0.310507,0.351722,0.303405,0.203703,0.175442,0.152795,0.162117,0.131102,0.127468,0.087980,0.072974,0.060142,0.054646,0.049776,0.042849,0.037364,0.029239,0.020525,0.017937,0.014961,0.009915,0.008420,0.005786,0.004386,0.003388,0.002618,0.001418,0.001159,0.000922,0.000585,0.000437,0.000376,0.000230,0.000193,0.000123,0.000083
0.000098,0.000119,0.000187,0.000232,0.000393,0.000546,0.000609,0.000759,0.001296,0.001765,0.002477,0.002831,0.003950,0.005960,0.007343,0.008774,0.011973,0.013276,0.018734,0.021347,0.030120,0.034825,0.045769,0.059633,0.071106,0.091563,0.074910,0.105162,0.150433,0.140004,0.180297,0.222418,0.249473,0.261270,0.311743,0.372211,0.392722,0.416785,0.499569,0.490033,0.476716,0.595924,0.665363,0.714866,0.698101,0.624472,0.689019,0.751995,0.732471,0.764814,0.754726,0.820800,0.679088,0.739004,0.632359,0.702887,0.637194,0.529485,0.555196,0.463308,0.537839,0.410325,0.438679,0.333734,0.308451,0.296587,0.235942,0.236239,0.234787,0.162917,0.126617,0.129403,0.129743,0.082366,0.068288,0.077198,0.060476,0.051141,0.032418,0.026421,0.022053,0.021416,0.013668,0.010648,0.009936,0.006438,0.005952,0.004095,0.003788,0.002028,0.001843,0.001544,0.000851,0.000618,0.000493,0.000347,0.000242,0.000158,0.000141,0.000091
0.000073,0.000115,0.000185,0.000226,0.000311,0.000443,0.000769,0.000913,0.001059,0.001564,0.002178,0.002738,0.004484,0.005388,0.006428,0.009118,0.012072,0.015960,0.019023,0.020395,0.032638,0.029997,0.040838,0.043677,0.058875,0.079780,0.087099,0.118651,0.129384,0.139073,0.171813,0.173870,0.226492,0.251395,0.280454,0.318152,0.375982,0.382024,0.381635,0.456408,0.513127,0.508445,0.467168,0.587914,0.623008,0.686615,0.702270,0.735797,0.608258,0.840331,0.735961,0.556153,0.693806,0.578006,0.568513,0.496394,0.501992,0.602185,0.480303,0.416866,0.527814,0.406166,0.345147,0.296307,0.334460,0.293726,0.281874,0.149889,0.177908,0.188972,0.130705,0.126911,0.116582,0.102908,0.078604,0.049973,0.052173,0.040282,0.037158,0.032379,0.020899,0.018509,0.013862,0.010308,0.008835,0.006181,0.004809,0.003534,0.003271,0.002063,0.001663,0.001031,0.000840,0.000562,0.000471,0.000359,0.000239,0.000170,0.000141,0.000096
0.000076,0.000100,0.000129,0.000216,0.000362,0.000408,0.000450,0.000841,0.001134,0.001384,0.001958,0.002630,0.003592,0.003569,0.005650,0.007590,0.009067,0.012392,0.017857,0.019663,0.028705,0.033275,0.036120,0.049819,0.048719,0.068592,0.087068,0.109309,0.135755,0.110705,0.153288,0.184696,0.213420,0.229628,0.285406,0.272022,0.346210,0.408532,0.339910,0.435129,0.441395,0.433760,0.501348,0.567231,0.596032,0.705519,0.664424,0.739026,0.498686,0.575232,0.692100,0.636935,0.454602,0.579175,0.499062,0.417259,0.540047,0.469862,0.511520,0.323973,0.419400,0.363547,0.303297,0.318106,0.276409,0.213323,0.178172,0.181312,0.181856,0.156064,0.123252,0.125074,0.100170,0.081468,0.065374,0.051736,0.046819,0.037138,0.031535,0.022517,0.020547,0.015120,0.014443,0.010250,0.007268,0.005175,0.004288,0.003928,0.002637,0.002095,0.001474,0.001212,0.000887,0.000599,0.000431,0.000343,0.000264,0.000160,0.000117,0.000082
0.000073,0.000088,0.000133,0.000230,0.000250,0.000469,0.000512,0.000747,0.000890,0.001476,0.001881,0.002266,0.004096,0.003984,0.005256,0.007300,0.009351,0.013142,0.015928,0.018062,0.024187,0.031472,0.037396,0.044579,0.051751,0.054907,0.073491,0.078708,0.087355,0.142296,0.112430,0.183618,0.187498,0.184061,0.229388,0.260532,0.289390,0.297517,0.348405,0.459181,0.452902,0.506009,0.396294,0.465882,0.523708,0.392837,0.550246,0.558653,0.498762,0.615264,0.500557,0.633743,0.559649,0.446959,0.446185,0.496063,0.511433,0.399700,0.502370,0.490626,0.409872,0.328281,0.295825,0.276690,0.266030,0.241207,0.201558,0.156287,0.157021,0.134260,0.136914,0.104178,0.082895,0.067252,0.065965,0.054667,0.043316,0.029924,0.026491,0.024894,0.019990,0.014313,0.010594,0.009456,0.007505,0.004419,0.004810,0.003121,0.002820,0.001785,0.001308,0.001125,0.000761,0.000467,0.000455,0.000322,0.000206,0.000148,0.000115,0.000069
0.000070,0.000113,0.000125,0.000166,0.000260,0.000389,0.000426,0.000706,0.000828,0.001152,0.001825,0.002285,0.002838,0.004184,0.004338,0.005885,0.007757,0.010959,0.012285,0.015919,0.021117,0.030639,0.034538,0.038263,0.047948,0.054217,0.066280,0.081391,0.093945,0.111602,0.137048,0.133197,0.163275,0.177112,0.218055,0.253825,0.250345,0.284093,0.307532,0.285019,0.329537,0.428480,0.421205,0.410637,0.500851,0.484713,0.531634,0.485872,0.602996,0.481980,0.514674,0.527104,0.552835,0.470718,0.488411,0.473230,0.508481,0.399097,0.411336,0.340698,0.321320,0.235476,0.286292,0.226709,0.195258,0.234801,0.202545,0.162697,0.150656,0.129265,0.111802,0.077567,0.077490,0.074534,0.063324,0.052202,0.035950,0.032799,0.025396,0.020791,0.018279,0.015275,0.011909,0.010730,0.006365,0.004532,0.004072,0.002912,0.002134,0.001263,0.001312,0.000901,0.000662,0.000422,0.000359,0.000290,0.000188,0.000124,0.000105,0.000067
0.000066,0.000095,0.000121,0.000177,0.000195,0.000307,0.000415,0.000673,0.000773,0.001065,0.001558,0.002468,0.002787,0.003599,0.004123,0.004575,0.008443,0.009292,0.011919,0.016869,0.015970,0.022146,0.030071,0.033829,0.040654,0.052239,0.060805,0.081600,0.085377,0.087198,0.128718,0.118378,0.157611,0.158399,0.238313,0.194886,0.233910,0.281887,0.282429,0.329098,0.303513,0.407034,0.396083,0.411171,0.463228,0.469392,0.409403,0.459932,0.452218,0.419613,0.518342,0.485151,0.442871,0.485310,0.414623,0.466107,0.314437,0.349995,0.365174,0.359478,0.301015,0.302307,0.209180,0.225415,0.196922,0.148325,0.170156,0.166099,0.130281,0.118736,0.118850,0.091628,0.075625,0.054941,0.049584,0.038735,0.038702,0.031701,0.023046,0.015208,0.018958,0.009918,0.007857,0.008537,0.005119,0.003918,0.003254,0.002355,0.001783,0.001607,0.001142,0.000841,0.000674,0.000449,0.000372,0.000255,0.000177,0.000105,0.000087,0.000058
0.000052,0.000075,0.000087,0.000152,0.000191,0.000306,0.000409,0.000597,0.000649,0.001089,0.001368,0.001701,0.002737,0.003103,0.003469,0.005274,0.006337,0.009472,0.011098,0.014324,0.020078,0.017534,0.025109,0.037826,0.040492,0.051139,0.048631,0.073032,0.087977,0.089449,0.114321,0.117567,0.130181,0.166752,0.190824,0.208885,0.238073,0.255176,0.286915,0.279731,0.309893,0.316472,0.310694,0.325290,0.332440,0.353536,0.458279,0.392113,0.371311,0.366968,0.435917,0.390864,0.427751,0.326506,0.414390,0.374682,0.383666,0.345351,0.324790,0.297530,0.227747,0.248590,0.195818,0.177360,0.177774,0.167166,0.152962,0.141276,0.119243,0.106854,0.092317,0.071608,0.061408,0.062775,0.048938,0.037275,0.029928,0.022491,0.020948,0.021155,0.014219,0.011156,0.008351,0.006367,0.005331,0.004062,0.003528,0.002371,0.001706,0.001159,0.000929,0.000707,0.000484,0.000472,0.000309,0.000206,0.000162,0.000120,0.000069,0.000054
0.000039,0.000057,0.000097,0.000128,0.000172,0.000246,0.000357,0.000456,0.000640,0.000928,0.001227,0.001692,0.002675,0.002878,0.003407,0.004203,0.005911,0.008346,0.012649,0.014311,0.015250,0.021632,0.024980,0.026847,0.034524,0.036375,0.040435,0.049935,0.070724,0.067238,0.085827,0.111213,0.114736,0.133565,0.138001,0.181798,0.165794,0.166329,0.231334,0.244445,0.240644,0.336183,0.337593,0.272104,0.322906,0.344574,0.328384,0.276430,0.418407,0.388689,0.418997,0.358095,0.338120,0.365439,0.339573,0.360612,0.309890,0.292289,0.311305,0.237828,0.247091,0.242021,0.206048,0.201210,0.148433,0.133140,0.128453,0.114147,0.093516,0.089377,0.081361,0.079775,0.054749,0.046979,0.052316,0.031006,0.030988,0.019782,0.018885,0.013232,0.010662,0.011100,0.008685,0.006359,0.004642,0.003457,0.002692,0.002416,0.001493,0.001043,0.000891,0.000710,0.000433,0.000322,0.000276,0.000183,0.000124,0.000087,0.000071,0.000046
0.000037,0.000052,0.000072,0.000103,0.000168,0.000241,0.000289,0.000461,0.000529,0.000856,0.001059,0.001258,0.001911,0.002709,0.002826,0.004581,0.005080,0.006632,0.009525,0.010359,0.011228,0.016869,0.018357,0.024149,0.029164,0.040443,0.049463,0.058755,0.057516,0.073395,0.077168,0.092379,0.102580,0.127204,0.149389,0.149318,0.156860,0.175734,0.232997,0.201558,0.235904,0.271910,0.251542,0.269618,0.289756,0.306558,0.286579,0.313641,0.351610,0.325470,0.363854,0.285156,0.322802,0.268437,0.295095,0.297535,0.275923,0.224852,0.240769,0.232137,0.236645,0.205041,0.193886,0.198555,0.167604,0.120505,0.142921,0.088276,0.093591,0.098684,0.067804,0.063067,0.057925,0.039426,0.034604,0.025205,0.023420,0.018976,0.016212,0.012342,0.013125,0.008494,0.007076,0.006011,0.003885,0.003309,0.002417,0.001648,0.001385,0.001098,0.000710,0.000600,0.000428,0.000261,0.000194,0.000148,0.000120,0.000082,0.000059,0.000040
0.000031,0.000049,0.000072,0.000098,0.000155,0.000225,0.000294,0.000380,0.000494,0.000723,0.000851,0.001394,0.001496,0.002165,0.002581,0.004215,0.005070,0.006638,0.009159,0.010330,0.012140,0.012776,0.017943,0.019543,0.025992,0.040054,0.038514,0.047238,0.054965,0.059663,0.063222,0.074319,0.091551,0.110915,0.106826,0.133929,0.160848,0.149403,0.174263,0.187325,0.196001,0.178720,0.245797,0.282534,0.240427,0.248243,0.286591,0.282683,0.257795,0.309044,0.350826,0.278704,0.261781,0.277913,0.218621,0.271855,0.229882,0.244799,0.206992,0.212474,0.169666,0.122886,0.172834,0.156433,0.145082,0.124682,0.099834,0.087441,0.068880,0.077831,0.055348,0.055485,0.043714,0.042359,0.032775,0.029086,0.024708,0.017857,0.013759,0.011112,0.008403,0.007581,0.005873,0.004589,0.003635,0.002518,0.002121,0.001742,0.001221,0.000900,0.000634,0.000521,0.000388,0.000209,0.000213,0.000140,0.000084,0.000077,0.000045,0.000041
0.000038,0.000047,0.000066,0.000087,0.000127,0.000144,0.000252,0.000309,0.000422,0.000574,0.000866,0.000965,0.001527,0.001714,0.002343,0.003008,0.004182,0.006021,0.006733,0.006414,0.010225,0.011823,0.017531,0.017232,0.023746,0.025932,0.028679,0.039411,0.048204,0.053071,0.062745,0.071193,0.080397,0.089266,0.102472,0.107110,0.137394,0.139148,0.150187,0.176254,0.197083,0.165736,0.194233,0.203538,0.199385,0.245907,0.234982,0.232941,0.271754,0.242490,0.182423,0.231817,0.269485,0.225877,0.211868,0.199947,0.216809,0.193906,0.199837,0.157308,0.161354,0.147629,0.145466,0.122583,0.096383,0.113532,0.097371,0.070809,0.069618,0.046051,0.053745,0.043749,0.032441,0.030729,0.026450,0.021613,0.019316,0.017107,0.014067,0.009740,0.007546,0.007090,0.005243,0.003037,0.002859,0.002498,0.001826,0.001206,0.001157,0.000740,0.000690,0.000481,0.000335,0.000216,0.000183,0.000128,0.000092,0.000062,0.000041,0.000031
0.000025,0.000033,0.000056,0.000065,0.000102,0.000163,0.000218,0.000247,0.000367,0.000490,0.000791,0.000942,0.001059,0.001572,0.001835,0.003019,0.003115,0.004384,0.005700,0.007457,0.008239,0.009938,0.013029,0.015250,0.018738,0.024660,0.031120,0.032519,0.039819,0.047279,0.054182,0.062024,0.086915,0.063016,0.090940,0.090226,0.103948,0.126526,0.141840,0.148549,0.160033,0.173379,0.160559,0.186941,0.215460,0.222385,0.171811,0.204232,0.235372,0.188327,0.206329,0.197908,0.218569,0.198521,0.200366,0.189683,0.178172,0.163309,0.158797,0.171709,0.132160,0.141747,0.118164,0.124238,0.101144,0.086531,0.088100,0.072335,0.061875,0.047821,0.043912,0.035807,0.025974,0.028122,0.026187,0.019663,0.011170,0.014028,0.012377,0.008924,0.007645,0.006870,0.004012,0.003356,0.003210,0.002126,0.001646,0.001285,0.000858,0.000583,0.000420,0.000379,0.000254,0.000216,0.000138,0.000092,0.000067,0.000050,0.000043,0.000028
0.000024,0.000025,0.000051,0.000066,0.000099,0.000145,0.000168,0.000256,0.000311,0.000478,0.000562,0.000742,0.001017,0.001344,0.001784,0.002532,0.002780,0.003685,0.005077,0.006230,0.007858,0.010342,0.010422,0.016253,0.015029,0.018861,0.020956,0.025759,0.026720,0.042443,0.041800,0.049763,0.052170,0.069792,0.082338,0.081284,0.091794,0.107713,0.117430,0.102502,0.126068,0.138767,0.137921,0.147447,0.174758,0.173741,0.193872,0.201033,0.167514,0.179274,0.176708,0.207840,0.203532,0.146945,0.162671,0.154025,0.147055,0.136214,0.152920,0.147145,0.112237,0.124401,0.108591,0.096460,0.076406,0.071815,0.065059,0.055960,0.050628,0.045147,0.033015,0.031068,0.029212,0.025831,0.019380,0.020351,0.013626,0.011289,0.009772,0.007735,0.006113,0.005241,0.003216,0.002582,0.001943,0.001494,0.001176,0.001206,0.000870,0.000557,0.000389,0.000367,0.000231,0.000172,0.000132,0.000088,0.000064,0.000054,0.000029,0.000024
0.000019,0.000024,0.000043,0.000051,0.000084,0.000109,0.000165,0.000197,0.000313,0.000351,0.000603,0.000707,0.000914,0.001272,0.001573,0.001688,0.002261,0.003347,0.003855,0.004920,0.005920,0.008350,0.011566,0.011347,0.014071,0.014226,0.020237,0.024489,0.031430,0.030575,0.042078,0.039342,0.045150,0.061331,0.061883,0.079351,0.078502,0.097746,0.093810,0.113300,0.104664,0.117729,0.108296,0.106017,0.126677,0.149930,0.159249,0.153471,0.162807,0.154459,0.133454,0.152660,0.151579,0.135332,0.163021,0.136068,0.126178,0.136734,0.101961,0.110716,0.113260,0.092782,0.109607,0.062049,0.070758,0.076058,0.065597,0.057735,0.045750,0.040450,0.034982,0.024816,0.023096,0.021082,0.016459,0.014782,0.013296,0.008867,0.007939,0.007704,0.005146,0.003840,0.002546,0.002672,0.001664,0.001223,0.001231,0.000901,0.000652,0.000395,0.000476,0.000278,0.000199,0.000150,0.000113,0.000074,0.000057,0.000028,0.000028,0.000022
0.000018,0.000024,0.000031,0.000046,0.000066,0.000107,0.000134,0.000174,0.000250,0.000356,0.000419,0.000569,0.000863,0.001027,0.001161,0.001655,0.002240,0.002813,0.003864,0.004616,0.004655,0.006820,0.007977,0.009285,0.012228,0.016638,0.018584,0.019961,0.015673,0.023975,0.035317,0.039048,0.043760,0.044748,0.057353,0.059309,0.065493,0.077414,0.068073,0.089925,0.090601,0.111720,0.123253,0.112634,0.105314,0.115435,0.146469,0.128167,0.125618,0.139464,0.124566,0.138672,0.127789,0.123322,0.099745,0.144737,0.119570,0.105818,0.114258,0.100225,0.088326,0.085137,0.088744,0.066374,0.061043,0.053956,0.050538,0.042207,0.040730,0.031617,0.027634,0.022097,0.019673,0.016196,0.015467,0.012040,0.009655,0.008228,0.007605,0.006145,0.004319,0.003439,0.002882,0.002109,0.001836,0.000985,0.000744,0.000664,0.000597,0.000442,0.000321,0.000252,0.000176,0.000135,0.000096,0.000066,0.000043,0.000035,0.000021,0.000016
0.000013,0.000020,0.000028,0.000041,0.000058,0.000078,0.000132,0.000133,0.000198,0.000288,0.000349,0.000474,0.000720,0.000872,0.001197,0.001429,0.001847,0.002462,0.002836,0.003936,0.003719,0.005716,0.007159,0.007986,0.010636,0.013005,0.013286,0.021143,0.020409,0.023311,0.029076,0.031424,0.035624,0.040499,0.053703,0.048643,0.042667,0.064079,0.060270,0.087487,0.098111,0.098967,0.067741,0.110416,0.102894,0.113821,0.108532,0.100645,0.123047,0.096838,0.125843,0.113472,0.111149,0.106179,0.100516,0.084823,0.099066,0.075764,0.078393,0.069514,0.078994,0.069459,0.061751,0.056906,0.059652,0.047365,0.034532,0.030367,0.026370,0.027158,0.024173,0.022574,0.016936,0.011450,0.012134,0.010849,0.007817,0.007226,0.005376,0.004945,0.003134,0.002684,0.001840,0.001975,0.001286,0.001006,0.000825,0.000738,0.000564,0.000355,0.000277,0.000199,0.000147,0.000121,0.000082,0.000053,0.000044,0.000032,0.000021,0.000014
0.000010,0.000017,0.000021,0.000030,0.000048,0.000056,0.000097,0.000102,0.000140,0.000228,0.000271,0.000513,0.000523,0.000698,0.000754,0.001219,0.001244,0.001847,0.002069,0.003323,0.003617,0.004264,0.005248,0.007455,0.008397,0.009604,0.011650,0.014565,0.014195,0.017990,0.020995,0.025159,0.027622,0.032271,0.030737,0.038244,0.044981,0.056586,0.059944,0.054404,0.065553,0.073136,0.065014,0.075976,0.076466,0.084426,0.093921,0.084693,0.079531,0.074790,0.092233,0.081781,0.102682,0.086057,0.086171,0.082403,0.087230,0.090846,0.072061,0.069647,0.063642,0.061667,0.059009,0.049630,0.043967,0.036651,0.032171,0.030034,0.022308,0.021968,0.018583,0.015796,0.014347,0.011128,0.009427,0.008625,0.007270,0.005294,0.004505,0.003507,0.002624,0.002401,0.001971,0.001337,0.001085,0.000904,0.000611,0.000469,0.000402,0.000259,0.000252,0.000173,0.000123,0.000071,0.000071,0.000044,0.000031,0.000023,0.000015,0.000011
0.000008,0.000013,0.000017,0.000026,0.000034,0.000041,0.000081,0.000101,0.000114,0.000183,0.000226,0.000307,0.000473,0.000548,0.000711,0.001022,0.000995,0.001678,0.002154,0.002592,0.002907,0.004219,0.004850,0.004992,0.006640,0.008456,0.010002,0.011604,0.013387,0.016883,0.016247,0.020206,0.025422,0.032637,0.027993,0.031055,0.040018,0.044540,0.049180,0.046919,0.053323,0.058886,0.049427,0.057452,0.059714,0.073484,0.064135,0.073349,0.072121,0.079223,0.083024,0.060983,0.056386,0.067834,0.065298,0.065667,0.067275,0.059558,0.055425,0.053727,0.055303,0.055804,0.040058,0.038181,0.032726,0.032962,0.027487,0.026383,0.020231,0.016289,0.017305,0.013797,0.010605,0.010653,0.006549,0.006119,0.006590,0.004822,0.003859,0.003434,0.002071,0.001498,0.001283,0.001371,0.000896,0.000778,0.000594,0.000404,0.000344,0.000241,0.000148,0.000138,0.000092,0.000070,0.000053,0.000033,0.000025,0.000019,0.000012,0.000009
0.000008,0.000011,0.000017,0.000023,0.000033,0.000042,0.000060,0.000081,0.000089,0.000156,0.000182,0.000267,0.000344,0.000469,0.000517,0.000838,0.001004,0.001419,0.001370,0.002163,0.002655,0.003256,0.004046,0.005010,0.006046,0.006699,0.009775,0.009670,0.012975,0.010818,0.016387,0.016803,0.021708,0.022804,0.028801,0.028787,0.039639,0.030385,0.032637,0.034205,0.043752,0.058417,0.043779,0.047965,0.054261,0.064500,0.070494,0.061543,0.066726,0.057296,0.072275,0.052824,0.050578,0.067338,0.058366,0.057749,0.052462,0.051941,0.051087,0.051813,0.032111,0.034766,0.036253,0.035571,0.031111,0.022582,0.024333,0.019187,0.018445,0.018660,0.012486,0.013155,0.009659,0.009059,0.005891,0.006125,0.005064,0.003970,0.003461,0.002493,0.002194,0.001461,0.001349,0.000891,0.000856,0.000547,0.000419,0.000371,0.000250,0.000261,0.000177,0.000118,0.000086,0.000055,0.000045,0.000027,0.000024,0.000015,0.000011,0.000008
0.000006,0.000009,0.000013,0.000015,0.000024,0.000038,0.000042,0.000074,0.000114,0.000166,0.000170,0.000277,0.000308,0.000388,0.000477,0.000683,0.000878,0.001064,0.001079,0.001549,0.001759,0.002495,0.003149,0.003327,0.004593,0.004766,0.006964,0.007401,0.008791,0.011740,0.014336,0.013150,0.014539,0.019001,0.020328,0.025816,0.022126,0.028826,0.031514,0.033774,0.041845,0.038777,0.029675,0.044919,0.041468,0.045592,0.059865,0.051390,0.049801,0.048089,0.049102,0.051585,0.055734,0.047449,0.054795,0.053414,0.038407,0.042629,0.033316,0.032858,0.030311,0.037680,0.028925,0.022473,0.025432,0.020989,0.019948,0.017450,0.014897,0.012278,0.011197,0.008804,0.006153,0.006822,0.005280,0.004649,0.003881,0.003565,0.002536,0.002011,0.001512,0.001397,0.001074,0.000945,0.000647,0.000473,0.000412,0.000300,0.000224,0.000168,0.000135,0.000087,0.000074,0.000045,0.000035,0.000022,0.000020,0.000016,0.000008,0.000007
0.000005,0.000008,0.000010,0.000016,0.000019,0.000029,0.000038,0.000058,0.000080,0.000098,0.000154,0.000156,0.000278,0.000264,0.000347,0.000500,0.000674,0.000858,0.001100,0.001195,0.001638,0.002032,0.002626,0.003061,0.004057,0.003211,0.005166,0.007691,0.008924,0.009005,0.008815,0.010426,0.012740,0.013471,0.016860,0.021224,0.019612,0.019229,0.026498,0.029999,0.024277,0.029957,0.035273,0.033553,0.039713,0.037235,0.037614,0.046513,0.042906,0.043116,0.039193,0.039346,0.047546,0.036071,0.033984,0.039942,0.036127,0.028923,0.028022,0.035270,0.026815,0.025705,0.024801,0.026094,0.019158,0.015426,0.016097,0.013732,0.011223,0.012473,0.009321,0.007338,0.005776,0.005879,0.004866,0.003721,0.003261,0.002939,0.002184,0.001765,0.001109,0.001120,0.000859,0.000675,0.000542,0.000309,0.000285,0.000232,0.000163,0.000138,0.000089,0.000082,0.000053,0.000029,0.000031,0.000021,0.000015,0.000012,0.000008,0.000005
0.000005,0.000005,0.000009,0.000014,0.000017,0.000024,0.000029,0.000048,0.000060,0.000067,0.000112,0.000150,0.000190,0.000250,0.000302,0.000430,0.000450,0.000593,0.000776,0.001048,0.001140,0.001644,0.002286,0.002033,0.002984,0.003601,0.004219,0.005436,0.006475,0.006230,0.006326,0.010516,0.009282,0.011184,0.014832,0.016008,0.016153,0.020538,0.017815,0.020839,0.026176,0.023668,0.026797,0.030861,0.036136,0.030738,0.029191,0.036420,0.038199,0.032844,0.028466,0.035016,0.031413,0.028990,0.029393,0.027434,0.027236,0.029948,0.029274,0.023603,0.022649,0.018575,0.016239,0.019073,0.018558,0.013317,0.010325,0.011064,0.009876,0.007396,0.006921,0.006423,0.004909,0.004456,0.003872,0.003241,0.002617,0.001660,0.001644,0.001182,0.001128,0.000743,0.000652,0.000595,0.000337,0.000378,0.000223,0.000192,0.000139,0.000124,0.000077,0.000057,0.000042,0.000027,0.000021,0.000017,0.000010,0.000008,0.000006,0.000005
0.000003,0.000005,0.000007,0.000010,0.000013,0.000017,0.000024,0.000032,0.000042,0.000075,0.000092,0.000101,0.000145,0.000214,0.000236,0.000256,0.000358,0.000476,0.000621,0.000873,0.001262,0.001205,0.001397,0.002087,0.002397,0.002748,0.003341,0.004100,0.004666,0.005405,0.007394,0.007254,0.008555,0.008309,0.013216,0.011699,0.012119,0.011617,0.014472,0.016525,0.017409,0.018566,0.019062,0.021758,0.019406,0.023716,0.027480,0.022481,0.024811,0.026538,0.025383,0.024931,0.028995,0.024793,0.020816,0.020031,0.022871,0.021787,0.018086,0.019594,0.019431,0.014774,0.015639,0.013049,0.011870,0.011558,0.008146,0.008207,0.008979,0.006299,0.005068,0.004879,0.004183,0.003936,0.003039,0.002445,0.001945,0.001803,0.001352,0.000812,0.000836,0.000718,0.000608,0.000363,0.000271,0.000235,0.000201,0.000156,0.000105,0.000088,0.000066,0.000048,0.000036,0.000028,0.000020,0.000011,0.000010,0.000006,0.000004,0.000004
0.000003,0.000003,0.000005,0.000007,0.000010,0.000015,0.000021,0.000025,0.000033,0.000053,0.000076,0.000098,0.000112,0.000153,0.000178,0.000230,0.000364,0.000364,0.000531,0.000742,0.000835,0.001123,0.001311,0.001675,0.001878,0.002147,0.003072,0.003579,0.003440,0.004782,0.005079,0.004860,0.006817,0.008153,0.007434,0.009192,0.009864,0.010996,0.014226,0.013372,0.014423,0.015971,0.014615,0.013999,0.020033,0.016743,0.017506,0.023734,0.018242,0.023082,0.019163,0.017778,0.024569,0.021583,0.020572,0.020052,0.019234,0.017042,0.014736,0.016978,0.012897,0.012858,0.011833,0.010881,0.009105,0.010222,0.008622,0.006621,0.005242,0.004442,0.004518,0.003957,0.003307,0.003124,0.002512,0.001792,0.001628,0.001201,0.000839,0.000810,0.000590,0.000551,0.000463,0.000364,0.000267,0.000209,0.000149,0.000116,0.000090,0.000067,0.000046,0.000033,0.000025,0.000021,0.000013,0.000009,0.000007,0.000005,0.000004,0.000002
0.000002,0.000003,0.000005,0.000006,0.000009,0.000009,0.000015,0.000019,0.000031,0.000037,0.000039,0.000072,0.000099,0.000141,0.000126,0.000229,0.000259,0.000293,0.000403,0.000490,0.000744,0.000935,0.000807,0.001144,0.001351,0.001636,0.002072,0.002516,0.002820,0.004303,0.004483,0.004386,0.005622,0.006325,0.006097,0.007762,0.006703,0.009217,0.008224,0.010639,0.012425,0.011361,0.011446,0.013270,0.015118,0.015774,0.015735,0.014281,0.018588,0.017921,0.015840,0.016231,0.016143,0.014839,0.013233,0.013066,0.013196,0.014965,0.012509,0.012920,0.010158,0.010110,0.009431,0.007575,0.007897,0.006404,0.006454,0.005193,0.004221,0.003667,0.003836,0.002855,0.002845,0.002008,0.001752,0.001308,0.001227,0.000876,0.000935,0.000607,0.000547,0.000468,0.000293,0.000247,0.000166,0.000133,0.000115,0.000095,0.000064,0.000053,0.000037,0.000033,0.000025,0.000016,0.000012,0.000008,0.000005,0.000005,0.000002,0.000002
0.000001,0.000002,0.000003,0.000004,0.000007,0.000008,0.000011,0.000017,0.000026,0.000039,0.000040,0.000058,0.000082,0.000100,0.000130,0.000149,0.000197,0.000257,0.000323,0.000394,0.000542,0.000797,0.000787,0.000988,0.001051,0.001139,0.001529,0.001947,0.002398,0.002603,0.003432,0.003973,0.003655,0.004261,0.005184,0.006380,0.006393,0.007086,0.008115,0.009284,0.008216,0.007884,0.009984,0.011582,0.010347,0.010032,0.011909,0.015514,0.011976,0.012620,0.012331,0.013902,0.011778,0.013124,0.010716,0.010491,0.010291,0.010434,0.008911,0.008271,0.008182,0.008088,0.006381,0.005863,0.005074,0.005503,0.004837,0.004047,0.002935,0.003406,0.002110,0.002271,0.002298,0.001664,0.001446,0.001234,0.001025,0.000738,0.000703,0.000561,0.000433,0.000337,0.000247,0.000173,0.000190,0.000117,0.000089,0.000069,0.000059,0.000042,0.000029,0.000025,0.000015,0.000013,0.000009,0.000007,0.000004,0.000003,0.000002,0.000002
0.000001,0.000002,0.000003,0.000004,0.000005,0.000006,0.000009,0.000016,0.000015,0.000025,0.000033,0.000041,0.000068,0.000070,0.000114,0.000127,0.000179,0.000169,0.000262,0.000416,0.000436,0.000519,0.000724,0.000752,0.000810,0.001021,0.001315,0.001436,0.001364,0.002374,0.002121,0.002628,0.003265,0.004629,0.004040,0.004950,0.004740,0.006536,0.006595,0.006523,0.007308,0.006526,0.006336,0.009219,0.009578,0.008788,0.010106,0.009733,0.009992,0.009237,0.009045,0.009941,0.009087,0.009546,0.010354,0.009144,0.008144,0.006574,0.007598,0.006368,0.006966,0.006504,0.005284,0.005037,0.004325,0.003855,0.004148,0.002709,0.002815,0.002598,0.002110,0.002077,0.001588,0.001362,0.001070,0.000967,0.000786,0.000578,0.000442,0.000389,0.000337,0.000231,0.000210,0.000178,0.000127,0.000104,0.000079,0.000053,0.000043,0.000035,0.000023,0.000017,0.000013,0.000008,0.000007,0.000005,0.000004,0.000002,0.000002,0.000001
0.000001,0.000001,0.000002,0.000003,0.000004,0.000005,0.000007,0.000011,0.000013,0.000019,0.000026,0.000033,0.000043,0.000055,0.000089,0.000109,0.000112,0.000190,0.000173,0.000231,0.000271,0.000348,0.000510,0.000634,0.000811,0.000840,0.000977,0.001096,0.001457,0.001463,0.001774,0.002511,0.002399,0.003011,0.003134,0.002729,0.004043,0.004246,0.003785,0.004758,0.005340,0.005999,0.006344,0.007243,0.006111,0.005978,0.005755,0.007004,0.007001,0.006594,0.006631,0.007295,0.007138,0.006762,0.007531,0.005686,0.006554,0.006086,0.006424,0.004888,0.005053,0.004778,0.003570,0.004216,0.003276,0.003129,0.003267,0.002429,0.002302,0.001692,0.001624,0.001650,0.001071,0.001112,0.000864,0.000702,0.000487,0.000481,0.000285,0.000351,0.000231,0.000178,0.000149,0.000126,0.000107,0.000064,0.000053,0.000041,0.000028,0.000025,0.000017,0.000012,0.000009,0.000007,0.000005,0.000004,0.000003,0.000002,0.000001,0.000001
0.000001,0.000001,0.000001,0.000002,0.000003,0.000004,0.000006,0.000007,0.000010,0.000013,0.000016,0.000028,0.000033,0.000042,0.000053,0.000066,0.000094,0.000127,0.000131,0.000223,0.000263,0.000295,0.000355,0.000439,0.000514,0.000563,0.000811,0.001032,0.001075,0.001245,0.001295,0.001498,0.002113,0.002186,0.002289,0.002626,0.002941,0.003020,0.003468,0.004051,0.003526,0.004858,0.004604,0.005380,0.004149,0.005992,0.005528,0.004454,0.004776,0.005886,0.005491,0.005426,0.006028,0.005014,0.004901,0.005906,0.005887,0.005187,0.004410,0.004541,0.004238,0.003154,0.002981,0.003195,0.002999,0.003021,0.001939,0.001634,0.001564,0.001434,0.001263,0.001042,0.000937,0.000762,0.000618,0.000529,0.000409,0.000347,0.000337,0.000221,0.000181,0.000131,0.000131,0.000091,0.000059,0.000059,0.000042,0.000033,0.000020,0.000021,0.000015,0.000010,0.000007,0.000005,0.000004,0.000002,0.000002,0.000001,0.000001,0.000001
0.000001,0.000001,0.000001,0.000001,0.000002,0.000003,0.000004,0.000006,0.000006,0.000009,0.000013,0.000014,0.000023,0.000033,0.000042,0.000049,0.000073,0.000071,0.000089,0.000155,0.000202,0.000197,0.000260,0.000362,0.000434,0.000498,0.000623,0.000725,0.000856,0.000904,0.001088,0.001136,0.001446,0.001894,0.002006,0.001803,0.002448,0.002577,0.002346,0.002488,0.003161,0.003712,0.003394,0.004096,0.003432,0.004045,0.004238,0.004054,0.003879,0.005315,0.004323,0.004828,0.004150,0.004203,0.004418,0.003906,0.003376,0.003940,0.003885,0.003059,0.002659,0.002474,0.002198,0.002683,0.002137,0.001820,0.001596,0.001421,0.001363,0.001022,0.000888,0.000730,0.000757,0.000539,0.000526,0.000393,0.000287,0.000232,0.000220,0.000188,0.000136,0.000116,0.000078,0.000072,0.000057,0.000037,0.000030,0.000022,0.000016,0.000014,0.000011,0.000008,0.000006,0.000004,0.000003,0.000002,0.000002,0.000001,0.000001,0.000001
0.000000,0.000001,0.000001,0.000001,0.000002,0.000002,0.000003,0.000004,0.000006,0.000006,0.000011,0.000012,0.000022,0.000026,0.000030,0.000039,0.000057,0.000059,0.000081,0.000101,0.000105,0.000154,0.000212,0.000243,0.000308,0.000348,0.000473,0.000510,0.000715,0.000717,0.000896,0.000827,0.000997,0.000900,0.001220,0.001428,0.001930,0.001607,0.002014,0.002293,0.002464,0.003063,0.002811,0.003304,0.003071,0.003156,0.002552,0.003659,0.003639,0.003580,0.002951,0.003511,0.003816,0.003069,0.002813,0.002835,0.003150,0.002708,0.002127,0.002225,0.002253,0.001844,0.001763,0.001607,0.001590,0.001262,0.001245,0.000930,0.000901,0.000869,0.000716,0.000588,0.000562,0.000425,0.000302,0.000294,0.000248,0.000195,0.000180,0.000139,0.000108,0.000092,0.000071,0.000050,0.000043,0.000034,0.000024,0.000017,0.000013,0.000011,0.000009,0.000006,0.000005,0.000004,0.000002,0.000001,0.000001,0.000001,0.000001,0.000000
0.000000,0.000000,0.000001,0.000001,0.000001,0.000002,0.000002,0.000003,0.000004,0.000006,0.000008,0.000011,0.000014,0.000018,0.000024,0.000032,0.000036,0.000049,0.000067,0.000079,0.000097,0.000114,0.000166,0.000171,0.000263,0.000264,0.000339,0.000441,0.000428,0.000491,0.000602,0.000768,0.000767,0.000881,0.001021,0.001311,0.001253,0.001436,0.001425,0.001580,0.001847,0.001653,0.002035,0.002388,0.002253,0.002186,0.002275,0.002266,0.002299,0.002470,0.002501,0.002295,0.002283,0.002102,0.002269,0.002339,0.002026,0.001634,0.001802,0.001750,0.001675,0.001400,0.001385,0.001210,0.001220,0.001101,0.000900,0.000892,0.000705,0.000552,0.000488,0.000417,0.000380,0.000276,0.000330,0.000217,0.000142,0.000122,0.000130,0.000103,0.000083,0.000060,0.000054,0.000034,0.000034,0.000025,0.000017,0.000014,0.000010,0.000007,0.000005,0.000005,0.000003,0.000002,0.000002,0.000001,0.000001,0.000001,0.000000,0.000000
0.000000,0.000000,0.000000,0.000001,0.000001,0.000001,0.000002,0.000003,0.000004,0.000004,0.000006,0.000007,0.000010,0.000014,0.000016,0.000022,0.000030,0.000031,0.000043,0.000057,0.000068,0.000083,0.000111,0.000135,0.000179,0.000169,0.000250,0.000279,0.000295,0.000328,0.000350,0.000479,0.000550,0.000657,0.000814,0.000762,0.000803,0.001033,0.000919,0.001449,0.001212,0.001559,0.001405,0.001559,0.001762,0.001925,0.001818,0.001670,0.001748,0.001591,0.001762,0.001536,0.001623,0.001575,0.001966,0.001730,0.001670,0.001615,0.001252,0.001417,0.000997,0.001140,0.001093,0.000666,0.000901,0.000809,0.000672,0.000629,0.000561,0.000512,0.000392,0.000304,0.000238,0.000223,0.000192,0.000188,0.000134,0.000129,0.000094,0.000066,0.000068,0.000045,0.000038,0.000023,0.000022,0.000017,0.000014,0.000011,0.000008,0.000006,0.000005,0.000003,0.000002,0.000002,0.000001,0.000001,0.000001,0.000000,0.000000,0.000000
0.000000,0.000000,0.000000,0.000000,0.000001,0.000001,0.000001,0.000002,0.000002,0.000003,0.000004,0.000006,0.000009,0.000012,0.000010,0.000015,0.000027,0.000026,0.000036,0.000045,0.000055,0.000069,0.000095,0.000098,0.000106,0.000134,0.000206,0.000211,0.000269,0.000273,0.000365,0.000389,0.000488,0.000493,0.000564,0.000505,0.000689,0.000711,0.000858,0.000820,0.000942,0.001016,0.001072,0.001072,0.001234,0.001171,0.001096,0.001116,0.001342,0.001152,0.001279,0.001184,0.001354,0.001324,0.001495,0.001147,0.001132,0.001063,0.001045,0.000928,0.000903,0.000836,0.000661,0.000652,0.000609,0.000461,0.000493,0.000404,0.000396,0.000275,0.000313,0.000193,0.000178,0.000158,0.000127,0.000135,0.000110,0.000076,0.000074,0.000054,0.000040,0.000032,0.000028,0.000018,0.000014,0.000015,0.000010,0.000007,0.000005,0.000004,0.000003,0.000002,0.000002,0.000001,0.000001,0.000001,0.000000,0.000000,0.000000,0.000000
0.000000,0.000000,0.000000,0.000000,0.000000,0.000001,0.000001,0.000001,0.000002,0.000002,0.000003,0.000004,0.000006,0.000008,0.000009,0.000010,0.000013,0.000022,0.000026,0.000036,0.000036,0.000043,0.000055,0.000079,0.000085,0.000110,0.000111,0.000128,0.000191,0.000214,0.000237,0.000228,0.000295,0.000316,0.000372,0.000451,0.000559,0.000506,0.000625,0.000666,0.000731,0.000701,0.000769,0.000798,0.000966,0.000992,0.000889,0.000827,0.001062,0.000907,0.001045,0.000982,0.000959,0.000964,0.000850,0.000952,0.000777,0.000794,0.000642,0.000709,0.000750,0.000576,0.000556,0.000498,0.000380,0.000371,0.000391,0.000375,0.000281,0.000244,0.000203,0.000148,0.000144,0.000128,0.000094,0.000085,0.000076,0.000064,0.000051,0.000039,0.000029,0.000020,0.000017,0.000015,0.000011,0.000008,0.000008,0.000005,0.000003,0.000003,0.000002,0.000002,0.000001,0.000001,0.000001,0.000000,0.000000,0.000000,0.000000,0.000000
0.000000,0.000000,0.000000,0.000000,0.000000,0.000001,0.000001,0.000001,0.000001,0.000002,0.000002,0.000003,0.000004,0.000006,0.000006,0.000008,0.000012,0.000014,0.000020,0.000019,0.000029,0.000037,0.000035,0.000052,0.000069,0.000070,0.000088,0.000113,0.000125,0.000141,0.000164,0.000186,0.000189,0.000269,0.000290,0.000316,0.000352,0.000344,0.000400,0.000468,0.000524,0.000509,0.000529,0.000636,0.000496,0.000718,0.000676,0.000639,0.000698,0.000434,0.000853,0.000613,0.000709,0.000642,0.000642,0.000643,0.000578,0.000636,0.000438,0.000383,0.000407,0.000384,0.000433,0.000356,0.000267,0.000274,0.000185,0.000251,0.000225,0.000146,0.000132,0.000127,0.000114,0.000089,0.000076,0.000068,0.000060,0.000046,0.000029,0.000027,0.000022,0.000016,0.000017,0.000012,0.000008,0.000007,0.000005,0.000004,0.000003,0.000002,0.000002,0.000001,0.000001,0.000001,0.000001,0.000000,0.000000,0.000000,0.000000,0.000000
0.000000,0.000000,0.000000,0.000000,0.000000,0.000000,0.000000,0.000001,0.000001,0.000001,0.000002,0.000002,0.000003,0.000003,0.000004,0.000006,0.000008,0.000010,0.000014,0.000020,0.000022,0.000027,0.000029,0.000035,0.000047,0.000056,0.000054,0.000066,0.000086,0.000104,0.000097,0.000151,0.000159,0.000143,0.000200,0.000221,0.000265,0.000228,0.000323,0.000296,0.000344,0.000416,0.000450,0.000478,0.000432,0.000438,0.000452,0.000505,0.000481,0.000519,0.000540,0.000475,0.000385,0.000516,0.000511,0.000495,0.000468,0.000422,0.000367,0.000334,0.000311,0.000297,0.000308,0.000239,0.000231,0.000201,0.000183,0.000176,0.000129,0.000114,0.000105,0.000085,0.000073,0.000073,0.000062,0.000043,0.000038,0.000029,0.000027,0.000020,0.000018,0.000012,0.000010,0.000008,0.000006,0.000006,0.000004,0.000002,0.000002,0.000002,0.000001,0.000001,0.000001,0.000000,0.000000,0.000000,0.000000,0.000000,0.000000,0.000000
0.000000,0.000000,0.000000,0.000000,0.000000,0.000000,0.000000,0.000001,0.000001,0.000001,0.000001,0.000001,0.000002,0.000003,0.000004,0.000004,0.000005,0.000007,0.000009,0.000013,0.000015,0.000020,0.000022,0.000027,0.000040,0.000047,0.000051,0.000050,0.000067,0.000079,0.000091,0.000088,0.000129,0.000132,0.000138,0.000179,0.000164,0.000192,0.000189,0.000258,0.000223,0.000290,0.000324,0.000297,0.000307,0.000344,0.000393,0.000276,0.000322,0.000399,0.000378,0.000348,0.000342,0.000328,0.000350,0.000326,0.000343,0.000181,0.000223,0.000228,0.000213,0.000232,0.000168,0.000159,0.000192,0.000149,0.000127,0.000091,0.000096,0.000078,0.000079,0.000074,0.000047,0.000048,0.000035,0.000030,0.000025,0.000019,0.000017,0.000014,0.000011,0.000010,0.000006,0.000006,0.000004,0.000004,0.000003,0.000002,0.000001,0.000001,0.000001,0.000001,0.000000,0.000000,0.000000,0.000000,0.000000,0.000000,0.000000,0.000000
0.000000,0.000000,0.000000,0.000000,0.000000,0.000000,0.000000,0.000000,0.000000,0.000001,0.000001,0.000001,0.000002,0.000002,0.000002,0.000003,0.000004,0.000005,0.000006,0.000008,0.000010,0.000013,0.000015,0.000021,0.000023,0.000030,0.000033,0.000043,0.000041,0.000057,0.000064,0.000072,0.000087,0.000097,0.000118,0.000123,0.000148,0.000153,0.000136,0.000130,0.000186,0.000158,0.000206,0.000248,0.000224,0.000237,0.000259,0.000262,0.000264,0.000254,0.000252,0.000233,0.000201,0.000238,0.000228,0.000221,0.000236,0.000171,0.000176,0.000169,0.000187,0.000153,0.000152,0.000124,0.000126,0.000098,0.000088,0.000071,0.000074,0.000072,0.000052,0.000038,0.000044,0.000029,0.000029,0.000023,0.000016,0.000013,0.000013,0.000010,0.000009,0.000006,0.000005,0.000004,0.000003,0.000003,0.000002,0.000001,0.000001,0.000001,0.000001,0.000000,0.000000,0.000000,0.000000,0.000000,0.000000,0.000000,0.000000,0.000000
0.000000,0.000000,0.000000,0.000000,0.000000,0.000000,0.000000,0.000000,0.000000,0.000000,0.000000,0.000001,0.000001,0.000001,0.000002,0.000002,0.000003,0.000003,0.000005,0.000006,0.000006,0.000010,0.000010,0.000013,0.000014,0.000022,0.000023,0.000029,0.000033,0.000035,0.000045,0.000053,0.000058,0.000065,0.000072,0.000085,0.000094,0.000093,0.000096,0.000095,0.000131,0.000150,0.000129,0.000140,0.000175,0.000199,0.000159,0.000165,0.000139,0.000171,0.000179,0.000164,0.000176,0.000190,0.000161,0.000186,0.000143,0.000132,0.000128,0.000117,0.000111,0.000124,0.000098,0.000110,0.000090,0.000076,0.000066,0.000053,0.000049,0.000043,0.000044,0.000029,0.000026,0.000024,0.000018,0.000017,0.000017,0.000012,0.000009,0.000007,0.000005,0.000004,0.000003,0.000003,0.000003,0.000002,0.000001,0.000001,0.000001,0.000001,0.000000,0.000000,0.000000,0.000000,0.000000,0.000000,0.000000,0.000000,0.000000,0.000000
0.000000,0.000000,0.000000,0.000000,0.000000,0.000000,0.000000,0.000000,0.000000,0.000000,0.000000,0.000000,0.000001,0.000001,0.000001,0.000002,0.000002,0.000003,0.000003,0.000004,0.000005,0.000007,0.000009,0.000009,0.000012,0.000017,0.000013,0.000018,0.000021,0.000026,0.000027,0.000041,0.000047,0.000047,0.000048,0.000055,0.000061,0.000081,0.000075,0.000072,0.000102,0.000102,0.000089,0.000101,0.000103,0.000103,0.000122,0.000130,0.000108,0.000140,0.000130,0.000120,0.000130,0.000112,0.000106,0.000102,0.000092,0.000087,0.000079,0.000085,0.000088,0.000070,0.000079,0.000057,0.000067,0.000053,0.000048,0.000039,0.000033,0.000032,0.000025,0.000024,0.000021,0.000015,0.000015,0.000011,0.000010,0.000008,0.000006,0.000004,0.000004,0.000003,0.000002,0.000002,0.000001,0.000001,0.000001,0.000001,0.000000,0.000000,0.000000,0.000000,0.000000,0.000000,0.000000,0.000000,0.000000,0.000000,0.000000,0.000000
